00.9144 00.9144 00.9137 00.9147 00.9137 00.9144 00.9153 00.9153 00.9156 00.9162 00.9172 00.9175 00.9181 00.9181 00.9178 00.9175 00.9175 00.9172 00.9172 00.9175 00.9175 00.9175 00.9181 00.9184 00.9203 00.9212 00.9244 00.9294 00.9369 00.9487 00.9650 00.9859 01.0147 01.0528 01.0997 01.1638 01.2441 01.3369 01.4444 01.5587 01.6841 01.8272 01.9734 02.1278 02.2844 02.4400 02.6025 02.7656 02.9253 03.1003 03.2722 03.4431 03.6109 03.7694 03.9247 04.0769 04.2119 04.3391 04.4528 04.5587 04.6728 04.7700 04.8641 04.9550 05.0412 05.1322 05.2197 05.3044 05.3978 05.4800 05.5575 05.6387 05.7131 05.7884 05.8741 05.9425 06.0134 06.0819 06.1469 06.2169 06.2691 06.3181 06.3828 06.4403 06.4981 06.5559 06.6050 06.6550 06.7128 06.7575 06.8066 06.8484 06.8900 06.9419 06.9791 07.0159 07.0569 07.0928 07.1303 07.1688 07.2038 07.2453 07.2788 07.3088 07.3444 07.3744 07.4053 07.4506 07.4744 07.5019 07.5316 07.5575 07.5881 07.6091 07.6259 07.6572 07.6831 07.7078 07.7362 07.7572 07.7778 07.8078 07.8256 07.8469 07.8647 07.8819 07.9084 07.9237 07.9387 07.9575 07.9712 07.9866 08.0053 08.0197 08.0369 08.0519 08.0612 08.0753 08.0856 08.0962 08.1197 08.1266 08.1350 08.1472 08.1562 08.1684 08.1766 08.1784 08.1913 08.2041 08.2125 08.2259 08.2325 08.2397 08.2581 08.2647 08.2725 08.2825 08.2903 08.3038 08.3119 08.3175 08.3284 08.3366 08.3450 08.3563 08.3631 08.3709 08.3841 08.3884 08.3997 08.4087 08.4166 08.4322 08.4369 08.4406 08.4528 08.4597 08.4684 08.4781 08.4794 08.4872 08.4987 08.5059 08.5172 08.5234 08.5306 08.5453 08.5509 08.5578 08.5688 08.5750 08.5844 08.5944 08.6000 08.6113 08.6184 08.6263 08.6378 08.6447 08.6525 08.6656 08.6713 08.6809 08.6897 08.6988 08.7106 08.7200 08.7247 08.7369 08.7438 08.7541 08.7672 08.7722 08.7816 08.7950 08.8056 08.8181 08.8281 08.8381 08.8528 08.8637 08.8731 08.8866 08.8981 08.9100 08.9259 08.9366 08.9500 08.9637 08.9775 08.9928 09.0063 09.0200 09.0363 09.0494 09.0631 09.0791 09.0944 09.1113 09.1303 09.1459 09.1656 09.1834 09.2044 09.2275 09.2450 09.2647 09.2891 09.3106 09.3328 09.3547 09.3756 09.3991 09.4228 09.4450 09.4678 09.4894 09.5116 09.5334 09.5519 09.5719 09.5916 09.6109 09.6291 09.6466 09.6641 09.6825 09.6981 09.7141 09.7319 09.7491 09.7662 09.7837 09.7997 09.8162 09.8353 09.8541 09.8750 09.8959 09.9169 09.9381 09.9603 09.9834 10.0059 10.0300 10.0541 10.0769 10.0991 10.1237 10.1462 10.1713 10.1944 10.2159 10.2394 10.2606 10.2822 10.3059 10.3259 10.3475 10.3706 10.3900 10.4109 10.4303 10.4500 10.4697 10.4859 10.5044 10.5250 10.5412 10.5600 10.5769 10.5941 10.6153 10.6312 10.6450 10.6616 10.6741 10.6900 10.7056 10.7141 10.7259 10.7397 10.7503 10.7644 10.7744 10.7816 10.7938 10.8013 10.8106 10.8216 10.8272 10.8350 10.8428 10.8438 10.8522 10.8584 10.8644 10.8713 10.8706 10.8713 10.8781 10.8756 10.8791 10.8803 10.8778 10.8850 10.8841 10.8778 10.8778 10.8728 10.8706 10.8709 10.8587 10.8519 10.8491 10.8406 10.8347 10.8253 10.8106 10.8069 10.7959 10.7866 10.7784 10.7628 10.7528 10.7431 10.7231 10.7134 10.7000 10.6813 10.6684 10.6459
00.9184 00.9187 00.9191 00.9184 00.9181 00.9175 00.9175 00.9169 00.9169 00.9172 00.9169 00.9175 00.9187 00.9187 00.9184 00.9184 00.9187 00.9187 00.9194 00.9197 00.9197 00.9194 00.9197 00.9206 00.9212 00.9237 00.9269 00.9331 00.9406 00.9519 00.9691 00.9909 01.0209 01.0594 01.1059 01.1697 01.2503 01.3434 01.4516 01.5672 01.6916 01.8350 01.9809 02.1347 02.2922 02.4488 02.6113 02.7744 02.9347 03.1094 03.2812 03.4519 03.6197 03.7791 03.9337 04.0853 04.2209 04.3481 04.4622 04.5678 04.6816 04.7791 04.8728 04.9647 05.0509 05.1394 05.2275 05.3116 05.4034 05.4869 05.5641 05.6453 05.7191 05.7919 05.8787 05.9478 06.0178 06.0862 06.1506 06.2200 06.2734 06.3222 06.3856 06.4444 06.5012 06.5597 06.6078 06.6562 06.7141 06.7578 06.8066 06.8475 06.8891 06.9406 06.9784 07.0144 07.0544 07.0900 07.1266 07.1644 07.1991 07.2397 07.2747 07.3028 07.3381 07.3688 07.4000 07.4456 07.4722 07.5000 07.5291 07.5550 07.5859 07.6084 07.6241 07.6550 07.6816 07.7053 07.7344 07.7544 07.7747 07.8044 07.8216 07.8422 07.8603 07.8762 07.9025 07.9187 07.9316 07.9503 07.9644 07.9800 07.9972 08.0109 08.0272 08.0431 08.0522 08.0675 08.0778 08.0894 08.1122 08.1191 08.1272 08.1394 08.1491 08.1616 08.1694 08.1709 08.1825 08.1950 08.2044 08.2181 08.2250 08.2325 08.2500 08.2559 08.2634 08.2728 08.2800 08.2928 08.3019 08.3075 08.3188 08.3281 08.3359 08.3475 08.3550 08.3628 08.3775 08.3828 08.3931 08.4016 08.4094 08.4253 08.4312 08.4356 08.4478 08.4547 08.4637 08.4744 08.4753 08.4831 08.4953 08.5019 08.5128 08.5184 08.5250 08.5397 08.5453 08.5516 08.5628 08.5703 08.5800 08.5903 08.5969 08.6072 08.6147 08.6228 08.6344 08.6406 08.6488 08.6631 08.6688 08.6784 08.6881 08.6975 08.7100 08.7197 08.7244 08.7369 08.7441 08.7522 08.7650 08.7700 08.7788 08.7922 08.8022 08.8134 08.8238 08.8341 08.8475 08.8581 08.8672 08.8800 08.8906 08.9028 08.9184 08.9291 08.9416 08.9553 08.9684 08.9844 08.9981 09.0122 09.0294 09.0437 09.0572 09.0741 09.0897 09.1062 09.1259 09.1406 09.1597 09.1784 09.1981 09.2213 09.2381 09.2575 09.2822 09.3038 09.3256 09.3488 09.3700 09.3925 09.4156 09.4363 09.4609 09.4828 09.5044 09.5275 09.5469 09.5675 09.5878 09.6066 09.6266 09.6441 09.6622 09.6806 09.6972 09.7131 09.7313 09.7481 09.7653 09.7844 09.8006 09.8181 09.8366 09.8550 09.8753 09.8947 09.9153 09.9372 09.9591 09.9828 10.0056 10.0291 10.0534 10.0769 10.0987 10.1228 10.1459 10.1706 10.1934 10.2138 10.2378 10.2600 10.2813 10.3047 10.3253 10.3488 10.3703 10.3878 10.4087 10.4284 10.4481 10.4684 10.4837 10.5016 10.5228 10.5400 10.5591 10.5753 10.5925 10.6125 10.6266 10.6394 10.6569 10.6694 10.6853 10.6997 10.7100 10.7231 10.7359 10.7469 10.7603 10.7697 10.7778 10.7900 10.7972 10.8063 10.8156 10.8216 10.8303 10.8394 10.8419 10.8506 10.8559 10.8628 10.8697 10.8697 10.8694 10.8759 10.8737 10.8766 10.8775 10.8756 10.8831 10.8822 10.8756 10.8756 10.8716 10.8694 10.8694 10.8575 10.8497 10.8475 10.8394 10.8344 10.8259 10.8109 10.8078 10.7975 10.7884 10.7800 10.7663 10.7566 10.7469 10.7275 10.7169 10.7038 10.6856 10.6738 10.6513
00.9084 00.9094 00.9097 00.9094 00.9091 00.9097 00.9097 00.9097 00.9097 00.9106 00.9109 00.9103 00.9112 00.9109 00.9109 00.9116 00.9109 00.9112 00.9112 00.9109 00.9106 00.9109 00.9112 00.9125 00.9141 00.9162 00.9212 00.9297 00.9409 00.9559 00.9772 01.0056 01.0422 01.0875 01.1491 01.2281 01.3206 01.4275 01.5416 01.6650 01.8075 01.9538 02.1066 02.2644 02.4213 02.5841 02.7484 02.9097 03.0844 03.2575 03.4278 03.5978 03.7584 03.9119 04.0675 04.2047 04.3328 04.4487 04.5550 04.6675 04.7662 04.8594 04.9522 05.0381 05.1262 05.2147 05.2981 05.3869 05.4697 05.5469 05.6278 05.7025 05.7763 05.8656 05.9341 06.0034 06.0719 06.1356 06.2050 06.2613 06.3094 06.3716 06.4294 06.4856 06.5450 06.5941 06.6425 06.7009 06.7459 06.7934 06.8369 06.8775 06.9278 06.9653 07.0013 07.0425 07.0784 07.1150 07.1550 07.1900 07.2281 07.2656 07.2956 07.3316 07.3616 07.3925 07.4372 07.4644 07.4913 07.5219 07.5475 07.5769 07.6006 07.6172 07.6466 07.6741 07.6975 07.7262 07.7462 07.7666 07.7969 07.8150 07.8341 07.8519 07.8684 07.8916 07.9087 07.9219 07.9403 07.9550 07.9694 07.9881 08.0016 08.0159 08.0334 08.0425 08.0569 08.0687 08.0800 08.1006 08.1097 08.1163 08.1294 08.1391 08.1506 08.1606 08.1616 08.1719 08.1862 08.1944 08.2075 08.2144 08.2225 08.2406 08.2469 08.2531 08.2641 08.2700 08.2800 08.2913 08.2966 08.3069 08.3156 08.3238 08.3347 08.3419 08.3503 08.3647 08.3681 08.3778 08.3872 08.3950 08.4081 08.4147 08.4181 08.4312 08.4375 08.4466 08.4584 08.4591 08.4666 08.4787 08.4859 08.4966 08.5044 08.5116 08.5250 08.5331 08.5406 08.5519 08.5594 08.5684 08.5806 08.5872 08.5975 08.6041 08.6122 08.6237 08.6319 08.6403 08.6538 08.6606 08.6697 08.6800 08.6884 08.7000 08.7131 08.7175 08.7294 08.7388 08.7478 08.7619 08.7672 08.7763 08.7906 08.8016 08.8131 08.8237 08.8331 08.8450 08.8575 08.8662 08.8787 08.8897 08.9022 08.9191 08.9281 08.9403 08.9537 08.9647 08.9794 08.9922 09.0063 09.0219 09.0359 09.0491 09.0659 09.0816 09.0975 09.1188 09.1328 09.1519 09.1716 09.1906 09.2128 09.2316 09.2513 09.2753 09.2978 09.3216 09.3450 09.3669 09.3894 09.4134 09.4347 09.4587 09.4806 09.5025 09.5253 09.5447 09.5656 09.5856 09.6044 09.6247 09.6428 09.6594 09.6769 09.6938 09.7091 09.7263 09.7437 09.7609 09.7797 09.7962 09.8137 09.8331 09.8522 09.8719 09.8922 09.9134 09.9350 09.9578 09.9806 10.0031 10.0266 10.0506 10.0747 10.0975 10.1225 10.1459 10.1691 10.1938 10.2141 10.2375 10.2594 10.2806 10.3038 10.3259 10.3475 10.3691 10.3878 10.4072 10.4281 10.4478 10.4684 10.4862 10.5034 10.5244 10.5409 10.5587 10.5772 10.5925 10.6134 10.6309 10.6425 10.6600 10.6738 10.6884 10.7053 10.7169 10.7284 10.7428 10.7531 10.7659 10.7775 10.7834 10.7956 10.8034 10.8113 10.8222 10.8300 10.8381 10.8472 10.8491 10.8575 10.8637 10.8691 10.8766 10.8775 10.8747 10.8828 10.8822 10.8847 10.8875 10.8838 10.8900 10.8928 10.8847 10.8850 10.8822 10.8769 10.8778 10.8697 10.8584 10.8566 10.8481 10.8428 10.8362 10.8209 10.8172 10.8078 10.7966 10.7878 10.7750 10.7650 10.7563 10.7366 10.7253 10.7147 10.6956 10.6831 10.6650 10.6375
00.9134 00.9144 00.9147 00.9150 00.9144 00.9147 00.9159 00.9169 00.9159 00.9162 00.9166 00.9169 00.9162 00.9162 00.9162 00.9169 00.9166 00.9159 00.9156 00.9169 00.9172 00.9172 00.9175 00.9178 00.9200 00.9222 00.9256 00.9322 00.9428 00.9569 00.9759 01.0013 01.0369 01.0800 01.1353 01.2100 01.2975 01.4009 01.5134 01.6309 01.7697 01.9153 02.0644 02.2216 02.3784 02.5381 02.7022 02.8634 03.0325 03.2069 03.3769 03.5488 03.7119 03.8644 04.0216 04.1628 04.2931 04.4119 04.5206 04.6331 04.7362 04.8297 04.9253 05.0125 05.0969 05.1881 05.2728 05.3581 05.4481 05.5262 05.6069 05.6822 05.7547 05.8416 05.9153 05.9831 06.0541 06.1197 06.1859 06.2484 06.2956 06.3531 06.4125 06.4681 06.5306 06.5813 06.6300 06.6881 06.7353 06.7800 06.8262 06.8675 06.9134 06.9575 06.9928 07.0331 07.0694 07.1044 07.1450 07.1797 07.2150 07.2566 07.2869 07.3209 07.3525 07.3819 07.4209 07.4547 07.4781 07.5109 07.5362 07.5634 07.5912 07.6069 07.6300 07.6619 07.6850 07.7125 07.7334 07.7525 07.7819 07.8019 07.8194 07.8403 07.8572 07.8769 07.9006 07.9134 07.9316 07.9456 07.9597 07.9778 07.9925 08.0056 08.0256 08.0325 08.0444 08.0575 08.0681 08.0859 08.1003 08.1047 08.1175 08.1259 08.1344 08.1484 08.1491 08.1544 08.1706 08.1797 08.1916 08.2000 08.2066 08.2209 08.2316 08.2375 08.2484 08.2556 08.2647 08.2791 08.2838 08.2931 08.3038 08.3122 08.3231 08.3316 08.3388 08.3528 08.3591 08.3663 08.3772 08.3853 08.3959 08.4087 08.4106 08.4212 08.4300 08.4375 08.4497 08.4512 08.4569 08.4706 08.4778 08.4866 08.4962 08.5012 08.5103 08.5231 08.5278 08.5388 08.5453 08.5541 08.5684 08.5738 08.5828 08.5934 08.6016 08.6122 08.6203 08.6281 08.6403 08.6488 08.6572 08.6687 08.6778 08.6888 08.7066 08.7109 08.7213 08.7319 08.7413 08.7544 08.7609 08.7691 08.7825 08.7931 08.8034 08.8159 08.8269 08.8391 08.8531 08.8616 08.8731 08.8850 08.8969 08.9125 08.9228 08.9337 08.9484 08.9612 08.9766 08.9900 09.0038 09.0191 09.0350 09.0487 09.0662 09.0819 09.0981 09.1181 09.1334 09.1513 09.1706 09.1888 09.2097 09.2303 09.2469 09.2700 09.2925 09.3134 09.3359 09.3581 09.3803 09.4044 09.4263 09.4484 09.4700 09.4916 09.5134 09.5328 09.5531 09.5734 09.5922 09.6119 09.6309 09.6481 09.6678 09.6853 09.7006 09.7197 09.7372 09.7544 09.7722 09.7897 09.8059 09.8247 09.8441 09.8634 09.8847 09.9062 09.9275 09.9500 09.9728 09.9969 10.0203 10.0434 10.0675 10.0903 10.1141 10.1372 10.1609 10.1859 10.2075 10.2309 10.2550 10.2772 10.3003 10.3231 10.3447 10.3684 10.3884 10.4078 10.4297 10.4484 10.4691 10.4884 10.5041 10.5237 10.5416 10.5597 10.5787 10.5934 10.6137 10.6331 10.6447 10.6600 10.6756 10.6884 10.7041 10.7153 10.7244 10.7388 10.7506 10.7631 10.7753 10.7813 10.7928 10.8041 10.8119 10.8216 10.8288 10.8359 10.8450 10.8472 10.8525 10.8606 10.8638 10.8719 10.8769 10.8731 10.8809 10.8825 10.8831 10.8863 10.8834 10.8875 10.8922 10.8838 10.8828 10.8822 10.8766 10.8775 10.8731 10.8594 10.8578 10.8506 10.8441 10.8384 10.8212 10.8153 10.8084 10.7956 10.7875 10.7769 10.7644 10.7559 10.7397 10.7259 10.7163 10.6966 10.6844 10.6697 10.6400
00.9162 00.9156 00.9144 00.9147 00.9144 00.9141 00.9128 00.9128 00.9125 00.9128 00.9119 00.9125 00.9128 00.9125 00.9122 00.9119 00.9119 00.9122 00.9119 00.9125 00.9128 00.9134 00.9150 00.9156 00.9169 00.9209 00.9272 00.9353 00.9475 00.9650 00.9884 01.0172 01.0556 01.1028 01.1672 01.2491 01.3422 01.4503 01.5656 01.6891 01.8319 01.9791 02.1325 02.2897 02.4469 02.6091 02.7722 02.9334 03.1078 03.2794 03.4491 03.6178 03.7759 03.9291 04.0816 04.2166 04.3441 04.4578 04.5637 04.6775 04.7750 04.8672 04.9588 05.0450 05.1337 05.2209 05.3050 05.3947 05.4772 05.5537 05.6344 05.7091 05.7828 05.8706 05.9384 06.0081 06.0759 06.1394 06.2078 06.2609 06.3094 06.3725 06.4313 06.4875 06.5450 06.5950 06.6434 06.7022 06.7463 06.7938 06.8356 06.8756 06.9263 06.9628 06.9988 07.0394 07.0744 07.1122 07.1513 07.1869 07.2266 07.2634 07.2919 07.3275 07.3588 07.3884 07.4328 07.4569 07.4834 07.5134 07.5391 07.5688 07.5906 07.6069 07.6366 07.6628 07.6853 07.7131 07.7316 07.7516 07.7813 07.7978 07.8172 07.8350 07.8516 07.8762 07.8925 07.9066 07.9253 07.9394 07.9528 07.9709 07.9844 07.9994 08.0162 08.0247 08.0397 08.0497 08.0612 08.0819 08.0903 08.0972 08.1109 08.1200 08.1300 08.1394 08.1406 08.1513 08.1638 08.1725 08.1869 08.1928 08.2013 08.2194 08.2256 08.2331 08.2441 08.2522 08.2631 08.2744 08.2797 08.2900 08.2978 08.3056 08.3172 08.3238 08.3322 08.3462 08.3522 08.3616 08.3706 08.3797 08.3934 08.4000 08.4034 08.4153 08.4219 08.4300 08.4431 08.4434 08.4506 08.4641 08.4719 08.4831 08.4909 08.4981 08.5116 08.5191 08.5253 08.5372 08.5447 08.5525 08.5644 08.5703 08.5813 08.5897 08.5978 08.6094 08.6163 08.6256 08.6400 08.6463 08.6550 08.6650 08.6744 08.6863 08.6988 08.7038 08.7166 08.7253 08.7347 08.7494 08.7553 08.7644 08.7784 08.7891 08.8006 08.8125 08.8228 08.8362 08.8478 08.8569 08.8703 08.8822 08.8944 08.9109 08.9222 08.9350 08.9484 08.9619 08.9772 08.9909 09.0059 09.0234 09.0381 09.0519 09.0700 09.0856 09.1022 09.1219 09.1372 09.1559 09.1753 09.1941 09.2166 09.2356 09.2534 09.2781 09.2997 09.3209 09.3447 09.3666 09.3888 09.4128 09.4338 09.4575 09.4791 09.5006 09.5228 09.5416 09.5609 09.5813 09.6000 09.6200 09.6378 09.6544 09.6744 09.6913 09.7081 09.7266 09.7437 09.7612 09.7787 09.7950 09.8116 09.8306 09.8497 09.8700 09.8906 09.9122 09.9347 09.9572 09.9806 10.0038 10.0281 10.0525 10.0756 10.0981 10.1225 10.1456 10.1697 10.1931 10.2153 10.2394 10.2625 10.2834 10.3072 10.3284 10.3506 10.3722 10.3903 10.4109 10.4312 10.4506 10.4706 10.4875 10.5047 10.5256 10.5422 10.5609 10.5788 10.5947 10.6144 10.6300 10.6422 10.6594 10.6722 10.6875 10.7034 10.7153 10.7284 10.7422 10.7538 10.7675 10.7781 10.7853 10.7975 10.8050 10.8141 10.8244 10.8300 10.8384 10.8478 10.8497 10.8584 10.8659 10.8706 10.8784 10.8794 10.8788 10.8853 10.8853 10.8875 10.8897 10.8878 10.8956 10.8978 10.8903 10.8906 10.8881 10.8853 10.8866 10.8778 10.8688 10.8675 10.8581 10.8534 10.8462 10.8306 10.8253 10.8159 10.8047 10.7969 10.7828 10.7722 10.7619 10.7416 10.7313 10.7191 10.6997 10.6881 10.6681 10.6422
00.9028 00.9022 00.9034 00.9031 00.9022 00.9016 00.9025 00.9016 00.9025 00.9025 00.9019 00.9022 00.9025 00.9025 00.9028 00.9028 00.9031 00.9031 00.9034 00.9031 00.9037 00.9044 00.9050 00.9069 00.9087 00.9125 00.9172 00.9250 00.9359 00.9522 00.9744 01.0034 01.0422 01.0888 01.1519 01.2328 01.3256 01.4334 01.5484 01.6731 01.8163 01.9634 02.1169 02.2741 02.4309 02.5941 02.7581 02.9200 03.0947 03.2675 03.4384 03.6078 03.7672 03.9200 04.0731 04.2094 04.3372 04.4512 04.5572 04.6694 04.7672 04.8606 04.9525 05.0384 05.1266 05.2144 05.2975 05.3866 05.4691 05.5456 05.6253 05.6991 05.7722 05.8603 05.9291 05.9981 06.0656 06.1294 06.1991 06.2541 06.3022 06.3638 06.4219 06.4784 06.5381 06.5866 06.6353 06.6947 06.7394 06.7869 06.8306 06.8709 06.9213 06.9588 06.9941 07.0362 07.0722 07.1091 07.1475 07.1825 07.2213 07.2581 07.2872 07.3216 07.3509 07.3816 07.4266 07.4513 07.4775 07.5069 07.5312 07.5603 07.5825 07.5987 07.6275 07.6525 07.6750 07.7028 07.7216 07.7400 07.7703 07.7872 07.8059 07.8247 07.8406 07.8656 07.8816 07.8950 07.9131 07.9272 07.9412 07.9603 07.9744 07.9884 08.0069 08.0150 08.0287 08.0394 08.0509 08.0731 08.0809 08.0878 08.1013 08.1100 08.1212 08.1300 08.1316 08.1431 08.1572 08.1656 08.1788 08.1847 08.1925 08.2109 08.2172 08.2244 08.2353 08.2434 08.2538 08.2644 08.2697 08.2806 08.2891 08.2969 08.3084 08.3150 08.3231 08.3366 08.3409 08.3503 08.3606 08.3697 08.3837 08.3909 08.3934 08.4066 08.4134 08.4222 08.4337 08.4350 08.4431 08.4562 08.4637 08.4756 08.4831 08.4903 08.5037 08.5122 08.5187 08.5306 08.5375 08.5456 08.5569 08.5628 08.5738 08.5816 08.5913 08.6022 08.6100 08.6188 08.6325 08.6387 08.6478 08.6578 08.6675 08.6803 08.6922 08.6972 08.7103 08.7194 08.7288 08.7434 08.7509 08.7594 08.7744 08.7847 08.7956 08.8075 08.8181 08.8316 08.8425 08.8525 08.8662 08.8778 08.8903 08.9062 08.9172 08.9294 08.9438 08.9566 08.9719 08.9853 08.9988 09.0159 09.0287 09.0431 09.0606 09.0766 09.0941 09.1150 09.1309 09.1494 09.1684 09.1878 09.2103 09.2287 09.2478 09.2719 09.2928 09.3153 09.3381 09.3597 09.3819 09.4056 09.4281 09.4516 09.4734 09.4953 09.5169 09.5344 09.5556 09.5756 09.5941 09.6141 09.6316 09.6494 09.6691 09.6859 09.7028 09.7209 09.7394 09.7569 09.7756 09.7934 09.8112 09.8309 09.8497 09.8694 09.8913 09.9131 09.9344 09.9575 09.9816 10.0047 10.0288 10.0531 10.0759 10.0981 10.1219 10.1459 10.1703 10.1941 10.2156 10.2388 10.2613 10.2831 10.3078 10.3297 10.3500 10.3725 10.3912 10.4119 10.4331 10.4522 10.4731 10.4897 10.5078 10.5294 10.5462 10.5647 10.5822 10.5988 10.6194 10.6359 10.6481 10.6644 10.6759 10.6913 10.7091 10.7200 10.7319 10.7463 10.7566 10.7706 10.7806 10.7872 10.7988 10.8063 10.8153 10.8259 10.8319 10.8406 10.8494 10.8506 10.8594 10.8666 10.8731 10.8806 10.8800 10.8788 10.8863 10.8850 10.8872 10.8900 10.8872 10.8950 10.8972 10.8900 10.8903 10.8869 10.8847 10.8850 10.8756 10.8672 10.8647 10.8553 10.8506 10.8438 10.8287 10.8247 10.8150 10.8041 10.7966 10.7816 10.7719 10.7628 10.7428 10.7322 10.7203 10.7013 10.6888 10.6694 10.6437
00.9153 00.9147 00.9153 00.9150 00.9156 00.9147 00.9137 00.9137 00.9137 00.9131 00.9134 00.9131 00.9122 00.9122 00.9125 00.9131 00.9134 00.9125 00.9128 00.9131 00.9141 00.9150 00.9156 00.9169 00.9184 00.9219 00.9281 00.9362 00.9475 00.9650 00.9872 01.0166 01.0563 01.1041 01.1659 01.2466 01.3394 01.4481 01.5631 01.6875 01.8297 01.9769 02.1306 02.2891 02.4447 02.6072 02.7703 02.9300 03.1047 03.2766 03.4459 03.6141 03.7722 03.9247 04.0784 04.2131 04.3397 04.4544 04.5609 04.6734 04.7719 04.8644 04.9566 05.0416 05.1303 05.2184 05.3022 05.3912 05.4744 05.5506 05.6316 05.7050 05.7775 05.8647 05.9337 06.0025 06.0712 06.1350 06.2031 06.2575 06.3056 06.3672 06.4250 06.4809 06.5397 06.5872 06.6353 06.6953 06.7400 06.7875 06.8312 06.8728 06.9238 06.9616 06.9969 07.0378 07.0725 07.1088 07.1478 07.1822 07.2206 07.2569 07.2856 07.3209 07.3503 07.3809 07.4253 07.4500 07.4759 07.5053 07.5288 07.5578 07.5803 07.5959 07.6237 07.6509 07.6737 07.7012 07.7197 07.7381 07.7675 07.7844 07.8022 07.8203 07.8359 07.8609 07.8778 07.8909 07.9084 07.9222 07.9359 07.9534 07.9662 07.9806 07.9978 08.0050 08.0191 08.0294 08.0412 08.0634 08.0722 08.0784 08.0928 08.1016 08.1131 08.1225 08.1234 08.1338 08.1469 08.1559 08.1703 08.1766 08.1841 08.2022 08.2097 08.2169 08.2275 08.2353 08.2447 08.2556 08.2609 08.2728 08.2806 08.2891 08.3009 08.3069 08.3150 08.3297 08.3363 08.3463 08.3563 08.3656 08.3803 08.3866 08.3897 08.4025 08.4097 08.4175 08.4300 08.4319 08.4391 08.4522 08.4594 08.4697 08.4772 08.4841 08.4975 08.5047 08.5100 08.5216 08.5284 08.5369 08.5491 08.5559 08.5669 08.5753 08.5838 08.5962 08.6044 08.6128 08.6278 08.6344 08.6441 08.6547 08.6647 08.6781 08.6906 08.6956 08.7091 08.7169 08.7259 08.7403 08.7466 08.7550 08.7694 08.7794 08.7913 08.8028 08.8131 08.8256 08.8372 08.8456 08.8587 08.8709 08.8831 08.8991 08.9100 08.9228 08.9366 08.9512 08.9672 08.9809 08.9944 09.0119 09.0262 09.0406 09.0575 09.0734 09.0903 09.1103 09.1250 09.1450 09.1647 09.1831 09.2050 09.2231 09.2422 09.2669 09.2894 09.3097 09.3331 09.3538 09.3772 09.4016 09.4228 09.4463 09.4684 09.4903 09.5122 09.5322 09.5538 09.5738 09.5934 09.6141 09.6322 09.6500 09.6691 09.6866 09.7022 09.7209 09.7381 09.7572 09.7766 09.7937 09.8116 09.8319 09.8513 09.8722 09.8938 09.9159 09.9372 09.9597 09.9822 10.0056 10.0300 10.0550 10.0791 10.1016 10.1262 10.1509 10.1753 10.1991 10.2197 10.2434 10.2669 10.2878 10.3122 10.3328 10.3547 10.3762 10.3950 10.4156 10.4369 10.4566 10.4769 10.4944 10.5112 10.5322 10.5487 10.5666 10.5847 10.6006 10.6216 10.6378 10.6487 10.6669 10.6806 10.6966 10.7122 10.7228 10.7353 10.7503 10.7609 10.7738 10.7856 10.7925 10.8050 10.8134 10.8228 10.8341 10.8400 10.8491 10.8581 10.8603 10.8697 10.8762 10.8816 10.8891 10.8900 10.8884 10.8963 10.8953 10.8981 10.9019 10.8987 10.9056 10.9066 10.8987 10.8991 10.8963 10.8938 10.8947 10.8847 10.8753 10.8734 10.8644 10.8584 10.8512 10.8366 10.8334 10.8234 10.8122 10.8047 10.7900 10.7794 10.7709 10.7522 10.7428 10.7306 10.7103 10.6988 10.6787 10.6541
00.9037 00.9047 00.9044 00.9041 00.9053 00.9059 00.9062 00.9066 00.9075 00.9072 00.9059 00.9062 00.9059 00.9066 00.9069 00.9062 00.9072 00.9072 00.9075 00.9066 00.9072 00.9075 00.9084 00.9094 00.9103 00.9128 00.9156 00.9219 00.9306 00.9431 00.9622 00.9850 01.0169 01.0572 01.1056 01.1734 01.2566 01.3538 01.4641 01.5813 01.7106 01.8547 02.0019 02.1572 02.3156 02.4713 02.6372 02.8006 02.9625 03.1391 03.3103 03.4822 03.6494 03.8069 03.9628 04.1116 04.2447 04.3691 04.4806 04.5847 04.6956 04.7919 04.8859 04.9759 05.0613 05.1519 05.2363 05.3187 05.4097 05.4900 05.5666 05.6456 05.7187 05.7947 05.8772 05.9444 06.0141 06.0806 06.1444 06.2134 06.2634 06.3113 06.3753 06.4322 06.4894 06.5450 06.5938 06.6459 06.7009 06.7438 06.7925 06.8338 06.8741 06.9250 06.9613 06.9981 07.0381 07.0728 07.1119 07.1500 07.1850 07.2278 07.2591 07.2875 07.3228 07.3528 07.3837 07.4266 07.4503 07.4791 07.5056 07.5297 07.5594 07.5766 07.5931 07.6241 07.6481 07.6712 07.6962 07.7144 07.7334 07.7603 07.7766 07.7975 07.8125 07.8287 07.8556 07.8687 07.8828 07.9000 07.9141 07.9297 07.9466 07.9603 07.9784 07.9922 08.0003 08.0153 08.0259 08.0369 08.0612 08.0669 08.0759 08.0878 08.0975 08.1109 08.1156 08.1175 08.1313 08.1416 08.1516 08.1647 08.1709 08.1797 08.1972 08.2019 08.2116 08.2200 08.2281 08.2444 08.2509 08.2572 08.2688 08.2763 08.2841 08.2947 08.3025 08.3119 08.3241 08.3306 08.3416 08.3509 08.3609 08.3781 08.3816 08.3884 08.4009 08.4097 08.4194 08.4259 08.4287 08.4397 08.4503 08.4581 08.4709 08.4775 08.4841 08.5006 08.5069 08.5156 08.5259 08.5328 08.5437 08.5522 08.5591 08.5706 08.5778 08.5856 08.5978 08.6063 08.6156 08.6297 08.6369 08.6481 08.6575 08.6681 08.6838 08.6913 08.6963 08.7088 08.7175 08.7284 08.7400 08.7463 08.7572 08.7709 08.7816 08.7953 08.8059 08.8156 08.8303 08.8394 08.8487 08.8622 08.8744 08.8872 08.9028 08.9141 08.9300 08.9422 08.9544 08.9700 08.9834 08.9975 09.0153 09.0281 09.0441 09.0606 09.0762 09.0953 09.1150 09.1313 09.1522 09.1716 09.1909 09.2122 09.2281 09.2484 09.2719 09.2953 09.3188 09.3413 09.3631 09.3869 09.4094 09.4316 09.4544 09.4759 09.4978 09.5194 09.5378 09.5581 09.5775 09.5966 09.6169 09.6356 09.6541 09.6738 09.6903 09.7066 09.7250 09.7428 09.7616 09.7809 09.7978 09.8166 09.8363 09.8563 09.8775 09.9006 09.9231 09.9459 09.9697 09.9931 10.0159 10.0406 10.0659 10.0887 10.1116 10.1366 10.1613 10.1866 10.2097 10.2313 10.2556 10.2769 10.2997 10.3234 10.3447 10.3659 10.3866 10.4047 10.4262 10.4459 10.4666 10.4862 10.5022 10.5216 10.5419 10.5594 10.5781 10.5944 10.6122 10.6331 10.6459 10.6606 10.6775 10.6897 10.7059 10.7216 10.7316 10.7453 10.7581 10.7700 10.7838 10.7919 10.8016 10.8138 10.8209 10.8309 10.8409 10.8466 10.8563 10.8634 10.8675 10.8772 10.8825 10.8900 10.8969 10.8928 10.8966 10.9034 10.9012 10.9056 10.9053 10.9059 10.9134 10.9097 10.9056 10.9063 10.9000 10.9000 10.8991 10.8841 10.8797 10.8756 10.8675 10.8625 10.8506 10.8409 10.8366 10.8231 10.8147 10.8056 10.7909 10.7819 10.7691 10.7497 10.7400 10.7231 10.7081 10.6966 10.6684
00.8997 00.8997 00.9003 00.9019 00.9022 00.9022 00.9031 00.9025 00.9037 00.9031 00.9034 00.9037 00.9037 00.9047 00.9037 00.9037 00.9044 00.9037 00.9037 00.9047 00.9050 00.9056 00.9066 00.9066 00.9081 00.9106 00.9162 00.9241 00.9350 00.9516 00.9738 01.0025 01.0403 01.0869 01.1494 01.2294 01.3216 01.4309 01.5469 01.6709 01.8141 01.9616 02.1141 02.2725 02.4306 02.5934 02.7569 02.9181 03.0925 03.2669 03.4366 03.6062 03.7662 03.9184 04.0728 04.2094 04.3384 04.4531 04.5578 04.6706 04.7687 04.8616 04.9544 05.0400 05.1269 05.2153 05.2991 05.3884 05.4712 05.5469 05.6275 05.7016 05.7738 05.8619 05.9297 05.9984 06.0659 06.1281 06.1959 06.2503 06.2975 06.3578 06.4153 06.4703 06.5281 06.5763 06.6234 06.6816 06.7263 06.7737 06.8172 06.8572 06.9081 06.9459 06.9816 07.0228 07.0588 07.0959 07.1366 07.1713 07.2097 07.2475 07.2763 07.3116 07.3419 07.3722 07.4156 07.4422 07.4669 07.4959 07.5191 07.5472 07.5697 07.5850 07.6125 07.6381 07.6594 07.6866 07.7031 07.7212 07.7503 07.7656 07.7837 07.8025 07.8188 07.8422 07.8600 07.8722 07.8912 07.9047 07.9197 07.9378 07.9516 07.9656 07.9834 07.9906 08.0050 08.0166 08.0284 08.0497 08.0591 08.0662 08.0806 08.0891 08.1000 08.1100 08.1119 08.1219 08.1356 08.1453 08.1584 08.1659 08.1731 08.1909 08.1981 08.2059 08.2172 08.2250 08.2366 08.2484 08.2544 08.2659 08.2744 08.2834 08.2956 08.3028 08.3103 08.3247 08.3303 08.3397 08.3497 08.3578 08.3712 08.3788 08.3825 08.3959 08.4022 08.4097 08.4212 08.4216 08.4275 08.4409 08.4478 08.4591 08.4659 08.4734 08.4866 08.4956 08.5022 08.5141 08.5212 08.5294 08.5425 08.5494 08.5600 08.5678 08.5772 08.5894 08.5981 08.6084 08.6231 08.6303 08.6403 08.6500 08.6603 08.6719 08.6856 08.6903 08.7019 08.7106 08.7206 08.7359 08.7422 08.7503 08.7647 08.7756 08.7872 08.8000 08.8097 08.8209 08.8337 08.8428 08.8559 08.8681 08.8809 08.8975 08.9078 08.9216 08.9369 08.9503 08.9650 08.9791 08.9931 09.0109 09.0256 09.0397 09.0572 09.0722 09.0894 09.1119 09.1272 09.1453 09.1650 09.1838 09.2056 09.2244 09.2434 09.2656 09.2875 09.3094 09.3328 09.3547 09.3775 09.4013 09.4219 09.4441 09.4662 09.4884 09.5103 09.5275 09.5472 09.5684 09.5872 09.6069 09.6256 09.6431 09.6628 09.6809 09.6969 09.7153 09.7331 09.7509 09.7703 09.7878 09.8063 09.8272 09.8463 09.8666 09.8884 09.9122 09.9356 09.9581 09.9828 10.0069 10.0306 10.0556 10.0791 10.1019 10.1269 10.1509 10.1756 10.2000 10.2213 10.2447 10.2678 10.2900 10.3147 10.3375 10.3600 10.3816 10.3997 10.4203 10.4412 10.4609 10.4816 10.5000 10.5172 10.5384 10.5563 10.5756 10.5944 10.6103 10.6297 10.6475 10.6591 10.6759 10.6897 10.7034 10.7200 10.7325 10.7444 10.7594 10.7703 10.7841 10.7966 10.8025 10.8159 10.8266 10.8350 10.8456 10.8528 10.8616 10.8719 10.8734 10.8819 10.8894 10.8947 10.9034 10.9059 10.9031 10.9113 10.9112 10.9131 10.9163 10.9125 10.9194 10.9219 10.9125 10.9125 10.9106 10.9072 10.9084 10.9016 10.8922 10.8906 10.8825 10.8769 10.8716 10.8550 10.8509 10.8422 10.8306 10.8225 10.8091 10.7987 10.7897 10.7719 10.7600 10.7478 10.7272 10.7147 10.6963 10.6678
00.9103 00.9116 00.9109 00.9109 00.9116 00.9128 00.9131 00.9131 00.9131 00.9131 00.9134 00.9137 00.9141 00.9137 00.9131 00.9128 00.9125 00.9131 00.9141 00.9144 00.9147 00.9150 00.9159 00.9169 00.9178 00.9191 00.9225 00.9278 00.9356 00.9481 00.9647 00.9863 01.0159 01.0547 01.1031 01.1659 01.2475 01.3397 01.4484 01.5647 01.6881 01.8306 01.9781 02.1319 02.2894 02.4472 02.6103 02.7741 02.9353 03.1081 03.2809 03.4512 03.6209 03.7787 03.9294 04.0825 04.2178 04.3456 04.4591 04.5644 04.6766 04.7750 04.8678 04.9597 05.0456 05.1328 05.2194 05.3028 05.3916 05.4756 05.5519 05.6322 05.7050 05.7781 05.8659 05.9347 06.0025 06.0703 06.1334 06.2003 06.2550 06.3022 06.3625 06.4200 06.4753 06.5334 06.5819 06.6288 06.6875 06.7309 06.7766 06.8194 06.8597 06.9094 06.9466 06.9819 07.0234 07.0587 07.0931 07.1328 07.1672 07.2047 07.2422 07.2700 07.3050 07.3353 07.3653 07.4081 07.4331 07.4597 07.4906 07.5137 07.5416 07.5637 07.5788 07.6050 07.6306 07.6528 07.6816 07.6994 07.7178 07.7466 07.7622 07.7809 07.7991 07.8134 07.8362 07.8550 07.8684 07.8856 07.8975 07.9122 07.9300 07.9437 07.9587 07.9778 07.9862 07.9994 08.0103 08.0212 08.0425 08.0531 08.0606 08.0741 08.0822 08.0941 08.1050 08.1059 08.1150 08.1300 08.1400 08.1528 08.1603 08.1678 08.1856 08.1925 08.1988 08.2097 08.2166 08.2275 08.2400 08.2453 08.2559 08.2653 08.2741 08.2859 08.2928 08.3000 08.3141 08.3181 08.3278 08.3388 08.3478 08.3619 08.3697 08.3737 08.3869 08.3950 08.4041 08.4169 08.4175 08.4237 08.4366 08.4428 08.4534 08.4609 08.4675 08.4812 08.4909 08.4987 08.5109 08.5175 08.5256 08.5384 08.5450 08.5550 08.5638 08.5716 08.5834 08.5906 08.5997 08.6144 08.6216 08.6316 08.6422 08.6525 08.6653 08.6791 08.6838 08.6953 08.7038 08.7138 08.7278 08.7334 08.7419 08.7559 08.7666 08.7794 08.7922 08.8031 08.8163 08.8291 08.8387 08.8534 08.8659 08.8788 08.8944 08.9044 08.9172 08.9328 08.9478 08.9631 08.9769 08.9913 09.0094 09.0250 09.0397 09.0572 09.0725 09.0900 09.1109 09.1272 09.1456 09.1647 09.1834 09.2047 09.2244 09.2437 09.2678 09.2891 09.3106 09.3331 09.3550 09.3784 09.4019 09.4234 09.4472 09.4691 09.4913 09.5134 09.5325 09.5525 09.5734 09.5922 09.6128 09.6319 09.6503 09.6697 09.6878 09.7053 09.7237 09.7425 09.7612 09.7816 09.7994 09.8172 09.8363 09.8559 09.8775 09.8997 09.9222 09.9447 09.9675 09.9919 10.0163 10.0409 10.0656 10.0900 10.1128 10.1369 10.1600 10.1850 10.2097 10.2294 10.2534 10.2759 10.2981 10.3219 10.3434 10.3647 10.3869 10.4053 10.4262 10.4475 10.4659 10.4859 10.5037 10.5216 10.5425 10.5600 10.5788 10.5969 10.6125 10.6344 10.6516 10.6631 10.6803 10.6950 10.7097 10.7259 10.7375 10.7497 10.7647 10.7747 10.7888 10.8009 10.8072 10.8191 10.8294 10.8378 10.8494 10.8559 10.8650 10.8737 10.8750 10.8834 10.8909 10.8959 10.9037 10.9059 10.9031 10.9109 10.9097 10.9125 10.9159 10.9134 10.9194 10.9222 10.9134 10.9134 10.9103 10.9066 10.9069 10.8991 10.8891 10.8875 10.8797 10.8734 10.8669 10.8509 10.8469 10.8378 10.8266 10.8181 10.8044 10.7928 10.7831 10.7641 10.7519 10.7409 10.7209 10.7088 10.6909
00.9009 00.9022 00.9012 00.9022 00.9012 00.9016 00.9012 00.9031 00.9031 00.9041 00.9037 00.9041 00.9041 00.9037 00.9041 00.9037 00.9041 00.9047 00.9041 00.9053 00.9069 00.9066 00.9084 00.9094 00.9112 00.9147 00.9206 00.9275 00.9394 00.9559 00.9778 01.0078 01.0472 01.0950 01.1575 01.2384 01.3319 01.4412 01.5581 01.6825 01.8256 01.9734 02.1266 02.2841 02.4419 02.6041 02.7681 02.9300 03.1041 03.2778 03.4478 03.6162 03.7753 03.9262 04.0794 04.2150 04.3425 04.4550 04.5597 04.6728 04.7709 04.8622 04.9544 05.0400 05.1275 05.2162 05.2991 05.3875 05.4700 05.5447 05.6253 05.6988 05.7697 05.8584 05.9269 05.9937 06.0612 06.1237 06.1912 06.2447 06.2919 06.3525 06.4100 06.4656 06.5244 06.5728 06.6209 06.6781 06.7228 06.7700 06.8125 06.8537 06.9047 06.9422 06.9781 07.0194 07.0547 07.0913 07.1306 07.1650 07.2016 07.2387 07.2669 07.3009 07.3300 07.3597 07.4019 07.4287 07.4541 07.4834 07.5072 07.5344 07.5559 07.5703 07.5969 07.6228 07.6447 07.6716 07.6888 07.7072 07.7363 07.7525 07.7706 07.7891 07.8050 07.8275 07.8453 07.8578 07.8750 07.8884 07.9028 07.9209 07.9350 07.9487 07.9662 07.9759 07.9894 08.0016 08.0134 08.0344 08.0447 08.0519 08.0656 08.0744 08.0850 08.0953 08.0966 08.1056 08.1209 08.1303 08.1438 08.1519 08.1597 08.1775 08.1856 08.1925 08.2044 08.2119 08.2234 08.2356 08.2419 08.2531 08.2622 08.2709 08.2838 08.2913 08.2991 08.3144 08.3203 08.3297 08.3403 08.3478 08.3609 08.3697 08.3725 08.3841 08.3916 08.3994 08.4122 08.4128 08.4184 08.4312 08.4381 08.4491 08.4572 08.4637 08.4769 08.4862 08.4912 08.5034 08.5097 08.5187 08.5322 08.5397 08.5506 08.5603 08.5684 08.5809 08.5888 08.5984 08.6131 08.6206 08.6300 08.6406 08.6500 08.6625 08.6769 08.6813 08.6944 08.7034 08.7138 08.7281 08.7347 08.7428 08.7569 08.7669 08.7794 08.7903 08.8000 08.8128 08.8250 08.8341 08.8481 08.8606 08.8734 08.8897 08.9006 08.9137 08.9294 08.9425 08.9575 08.9716 08.9853 09.0028 09.0181 09.0328 09.0500 09.0672 09.0850 09.1056 09.1219 09.1413 09.1625 09.1813 09.2028 09.2213 09.2394 09.2628 09.2844 09.3063 09.3294 09.3506 09.3728 09.3966 09.4188 09.4406 09.4625 09.4844 09.5066 09.5256 09.5463 09.5672 09.5850 09.6056 09.6247 09.6434 09.6638 09.6825 09.6988 09.7178 09.7366 09.7556 09.7759 09.7934 09.8106 09.8322 09.8522 09.8731 09.8950 09.9175 09.9403 09.9628 09.9872 10.0103 10.0353 10.0603 10.0850 10.1078 10.1328 10.1569 10.1806 10.2059 10.2278 10.2525 10.2769 10.2994 10.3238 10.3456 10.3678 10.3909 10.4106 10.4312 10.4525 10.4725 10.4928 10.5109 10.5269 10.5481 10.5663 10.5853 10.6053 10.6200 10.6409 10.6569 10.6672 10.6841 10.6988 10.7144 10.7316 10.7431 10.7544 10.7697 10.7806 10.7947 10.8059 10.8128 10.8263 10.8350 10.8428 10.8534 10.8594 10.8697 10.8784 10.8812 10.8909 10.8981 10.9025 10.9100 10.9122 10.9094 10.9178 10.9172 10.9200 10.9238 10.9213 10.9281 10.9306 10.9237 10.9234 10.9216 10.9187 10.9197 10.9128 10.9028 10.9003 10.8925 10.8872 10.8812 10.8647 10.8609 10.8519 10.8409 10.8322 10.8187 10.8072 10.7981 10.7803 10.7681 10.7575 10.7366 10.7241 10.7053 10.6762
00.9112 00.9112 00.9106 00.9106 00.9097 00.9100 00.9094 00.9100 00.9106 00.9094 00.9094 00.9103 00.9106 00.9109 00.9106 00.9103 00.9112 00.9106 00.9109 00.9119 00.9125 00.9131 00.9144 00.9153 00.9169 00.9187 00.9234 00.9303 00.9400 00.9547 00.9744 00.9988 01.0331 01.0772 01.1303 01.2038 01.2900 01.3912 01.5044 01.6225 01.7575 01.9034 02.0519 02.2091 02.3675 02.5266 02.6909 02.8531 03.0191 03.1941 03.3634 03.5356 03.7006 03.8544 04.0109 04.1541 04.2844 04.4062 04.5156 04.6231 04.7300 04.8234 04.9178 05.0053 05.0903 05.1800 05.2647 05.3472 05.4378 05.5159 05.5959 05.6709 05.7413 05.8213 05.8981 05.9631 06.0341 06.0984 06.1609 06.2259 06.2731 06.3247 06.3866 06.4416 06.5000 06.5519 06.5984 06.6550 06.7037 06.7469 06.7934 06.8353 06.8775 06.9269 06.9619 07.0013 07.0381 07.0725 07.1125 07.1481 07.1816 07.2237 07.2538 07.2844 07.3172 07.3466 07.3813 07.4169 07.4397 07.4691 07.4934 07.5175 07.5478 07.5616 07.5788 07.6106 07.6331 07.6578 07.6794 07.6966 07.7200 07.7428 07.7575 07.7784 07.7934 07.8084 07.8347 07.8478 07.8637 07.8806 07.8941 07.9112 07.9259 07.9391 07.9606 07.9697 07.9791 07.9934 08.0041 08.0175 08.0394 08.0447 08.0562 08.0662 08.0756 08.0916 08.0934 08.0966 08.1131 08.1234 08.1353 08.1459 08.1522 08.1634 08.1781 08.1841 08.1956 08.2041 08.2134 08.2300 08.2347 08.2422 08.2547 08.2634 08.2737 08.2838 08.2906 08.3047 08.3125 08.3188 08.3303 08.3391 08.3487 08.3650 08.3675 08.3772 08.3881 08.3950 08.4066 08.4109 08.4137 08.4269 08.4341 08.4425 08.4534 08.4591 08.4681 08.4831 08.4878 08.4978 08.5062 08.5144 08.5284 08.5353 08.5419 08.5522 08.5594 08.5694 08.5809 08.5900 08.6013 08.6122 08.6200 08.6309 08.6403 08.6503 08.6666 08.6709 08.6806 08.6931 08.7019 08.7141 08.7238 08.7306 08.7444 08.7572 08.7684 08.7825 08.7913 08.8013 08.8163 08.8253 08.8372 08.8506 08.8631 08.8778 08.8916 08.9028 08.9184 08.9316 08.9456 08.9603 08.9737 08.9887 09.0069 09.0194 09.0362 09.0525 09.0700 09.0909 09.1088 09.1256 09.1475 09.1666 09.1866 09.2094 09.2262 09.2484 09.2719 09.2928 09.3156 09.3384 09.3603 09.3844 09.4063 09.4297 09.4525 09.4744 09.4966 09.5169 09.5378 09.5591 09.5775 09.5969 09.6175 09.6350 09.6538 09.6741 09.6897 09.7078 09.7269 09.7453 09.7666 09.7862 09.8028 09.8222 09.8422 09.8625 09.8844 09.9072 09.9294 09.9525 09.9753 09.9994 10.0231 10.0484 10.0741 10.0966 10.1203 10.1453 10.1694 10.1947 10.2147 10.2375 10.2622 10.2850 10.3078 10.3306 10.3522 10.3747 10.3953 10.4147 10.4375 10.4575 10.4784 10.4981 10.5137 10.5341 10.5538 10.5722 10.5922 10.6088 10.6294 10.6497 10.6616 10.6763 10.6931 10.7069 10.7231 10.7384 10.7475 10.7625 10.7756 10.7875 10.8016 10.8084 10.8200 10.8316 10.8391 10.8491 10.8578 10.8641 10.8741 10.8788 10.8837 10.8925 10.8969 10.9041 10.9097 10.9044 10.9112 10.9150 10.9141 10.9191 10.9166 10.9200 10.9263 10.9203 10.9178 10.9188 10.9125 10.9138 10.9116 10.8975 10.8956 10.8903 10.8834 10.8794 10.8656 10.8581 10.8531 10.8397 10.8316 10.8216 10.8075 10.7984 10.7841 10.7669 10.7578 10.7391 10.7253 10.7122 10.6825
00.9112 00.9122 00.9137 00.9144 00.9150 00.9150 00.9153 00.9156 00.9162 00.9162 00.9162 00.9159 00.9153 00.9153 00.9159 00.9162 00.9162 00.9162 00.9172 00.9178 00.9178 00.9181 00.9172 00.9172 00.9191 00.9219 00.9266 00.9337 00.9441 00.9600 00.9806 01.0081 01.0450 01.0903 01.1481 01.2259 01.3159 01.4222 01.5369 01.6562 01.7978 01.9450 02.0969 02.2550 02.4128 02.5734 02.7378 02.9000 03.0703 03.2441 03.4131 03.5844 03.7462 03.8975 04.0541 04.1937 04.3219 04.4381 04.5447 04.6553 04.7556 04.8475 04.9409 05.0272 05.1106 05.2003 05.2837 05.3678 05.4550 05.5316 05.6122 05.6847 05.7559 05.8419 05.9122 05.9772 06.0469 06.1109 06.1759 06.2363 06.2825 06.3397 06.3984 06.4531 06.5134 06.5616 06.6087 06.6678 06.7134 06.7578 06.8025 06.8434 06.8903 06.9322 06.9678 07.0084 07.0434 07.0775 07.1169 07.1509 07.1856 07.2266 07.2547 07.2872 07.3172 07.3462 07.3847 07.4137 07.4362 07.4669 07.4909 07.5166 07.5419 07.5563 07.5784 07.6075 07.6288 07.6553 07.6750 07.6934 07.7209 07.7378 07.7550 07.7759 07.7916 07.8113 07.8344 07.8472 07.8659 07.8791 07.8928 07.9103 07.9237 07.9372 07.9572 07.9644 07.9775 07.9906 08.0016 08.0197 08.0347 08.0397 08.0528 08.0609 08.0712 08.0856 08.0862 08.0931 08.1094 08.1194 08.1319 08.1409 08.1488 08.1644 08.1744 08.1813 08.1925 08.1994 08.2088 08.2234 08.2278 08.2372 08.2475 08.2556 08.2672 08.2744 08.2819 08.2969 08.3016 08.3088 08.3206 08.3294 08.3403 08.3528 08.3566 08.3672 08.3766 08.3853 08.3984 08.4003 08.4059 08.4216 08.4291 08.4394 08.4487 08.4556 08.4662 08.4778 08.4837 08.4969 08.5031 08.5116 08.5259 08.5316 08.5406 08.5516 08.5588 08.5691 08.5784 08.5869 08.6019 08.6094 08.6169 08.6278 08.6372 08.6481 08.6644 08.6694 08.6803 08.6900 08.6991 08.7134 08.7203 08.7281 08.7419 08.7528 08.7644 08.7778 08.7869 08.7991 08.8119 08.8206 08.8344 08.8469 08.8597 08.8756 08.8869 08.8997 08.9156 08.9287 08.9431 08.9572 08.9722 08.9887 09.0047 09.0187 09.0366 09.0534 09.0712 09.0916 09.1078 09.1272 09.1481 09.1675 09.1888 09.2097 09.2275 09.2503 09.2728 09.2947 09.3191 09.3406 09.3622 09.3863 09.4078 09.4303 09.4522 09.4741 09.4966 09.5162 09.5369 09.5575 09.5766 09.5963 09.6166 09.6350 09.6550 09.6734 09.6903 09.7109 09.7303 09.7491 09.7709 09.7900 09.8081 09.8284 09.8500 09.8706 09.8934 09.9172 09.9400 09.9625 09.9869 10.0119 10.0366 10.0612 10.0866 10.1100 10.1350 10.1584 10.1828 10.2084 10.2294 10.2534 10.2775 10.3003 10.3241 10.3459 10.3669 10.3900 10.4094 10.4306 10.4519 10.4709 10.4906 10.5103 10.5259 10.5466 10.5647 10.5838 10.6031 10.6191 10.6394 10.6581 10.6694 10.6863 10.7003 10.7150 10.7325 10.7453 10.7569 10.7722 10.7831 10.7969 10.8106 10.8163 10.8294 10.8406 10.8487 10.8594 10.8672 10.8756 10.8844 10.8869 10.8953 10.9031 10.9084 10.9172 10.9216 10.9181 10.9259 10.9266 10.9284 10.9322 10.9284 10.9350 10.9388 10.9303 10.9294 10.9288 10.9241 10.9253 10.9206 10.9084 10.9069 10.9000 10.8944 10.8887 10.8716 10.8656 10.8572 10.8447 10.8378 10.8250 10.8128 10.8025 10.7862 10.7737 10.7631 10.7425 10.7297 10.7131 10.6831
00.9172 00.9175 00.9181 00.9184 00.9194 00.9197 00.9187 00.9184 00.9184 00.9191 00.9191 00.9184 00.9184 00.9172 00.9172 00.9166 00.9169 00.9172 00.9172 00.9172 00.9169 00.9172 00.9175 00.9184 00.9209 00.9241 00.9306 00.9397 00.9525 00.9700 00.9941 01.0256 01.0663 01.1156 01.1816 01.2644 01.3597 01.4691 01.5863 01.7138 01.8591 02.0066 02.1619 02.3200 02.4763 02.6403 02.8044 02.9650 03.1397 03.3119 03.4816 03.6494 03.8078 03.9612 04.1116 04.2459 04.3716 04.4834 04.5869 04.6975 04.7931 04.8859 04.9759 05.0606 05.1487 05.2347 05.3169 05.4056 05.4866 05.5628 05.6412 05.7141 05.7856 05.8706 05.9369 06.0047 06.0712 06.1344 06.2022 06.2541 06.3012 06.3631 06.4200 06.4766 06.5331 06.5803 06.6284 06.6862 06.7297 06.7756 06.8175 06.8575 06.9081 06.9450 06.9806 07.0213 07.0563 07.0931 07.1313 07.1653 07.2050 07.2387 07.2659 07.2997 07.3281 07.3566 07.3997 07.4231 07.4484 07.4766 07.4991 07.5275 07.5469 07.5609 07.5891 07.6128 07.6334 07.6588 07.6753 07.6934 07.7216 07.7369 07.7566 07.7737 07.7894 07.8156 07.8303 07.8428 07.8606 07.8750 07.8906 07.9081 07.9212 07.9378 07.9550 07.9634 07.9784 07.9900 08.0025 08.0250 08.0325 08.0409 08.0544 08.0628 08.0756 08.0844 08.0866 08.0991 08.1128 08.1213 08.1344 08.1406 08.1500 08.1669 08.1725 08.1813 08.1919 08.1997 08.2125 08.2228 08.2287 08.2400 08.2478 08.2566 08.2681 08.2744 08.2825 08.2959 08.3009 08.3119 08.3213 08.3300 08.3441 08.3506 08.3553 08.3672 08.3744 08.3841 08.3944 08.3953 08.4031 08.4147 08.4222 08.4337 08.4409 08.4491 08.4641 08.4719 08.4784 08.4894 08.4969 08.5072 08.5191 08.5262 08.5372 08.5459 08.5547 08.5663 08.5747 08.5844 08.5988 08.6059 08.6163 08.6269 08.6369 08.6497 08.6616 08.6666 08.6800 08.6894 08.6994 08.7131 08.7191 08.7284 08.7438 08.7541 08.7672 08.7794 08.7909 08.8044 08.8166 08.8275 08.8425 08.8553 08.8681 08.8853 08.8962 08.9112 08.9266 08.9397 08.9556 08.9697 08.9847 09.0025 09.0169 09.0322 09.0503 09.0666 09.0841 09.1053 09.1213 09.1409 09.1594 09.1781 09.2013 09.2181 09.2378 09.2613 09.2825 09.3041 09.3278 09.3494 09.3722 09.3953 09.4169 09.4403 09.4619 09.4838 09.5053 09.5244 09.5447 09.5650 09.5841 09.6041 09.6228 09.6422 09.6631 09.6806 09.6988 09.7200 09.7384 09.7584 09.7781 09.7959 09.8144 09.8353 09.8566 09.8781 09.9003 09.9234 09.9469 09.9706 09.9956 10.0209 10.0459 10.0709 10.0937 10.1178 10.1428 10.1659 10.1909 10.2153 10.2375 10.2622 10.2856 10.3075 10.3303 10.3522 10.3753 10.3972 10.4153 10.4359 10.4572 10.4772 10.4975 10.5150 10.5341 10.5541 10.5716 10.5916 10.6097 10.6247 10.6462 10.6631 10.6756 10.6934 10.7069 10.7219 10.7388 10.7497 10.7644 10.7791 10.7894 10.8028 10.8147 10.8219 10.8341 10.8438 10.8528 10.8625 10.8691 10.8794 10.8875 10.8897 10.8991 10.9062 10.9125 10.9212 10.9206 10.9203 10.9272 10.9253 10.9294 10.9316 10.9288 10.9378 10.9388 10.9309 10.9312 10.9278 10.9259 10.9269 10.9175 10.9094 10.9081 10.8994 10.8947 10.8872 10.8719 10.8681 10.8572 10.8478 10.8394 10.8250 10.8141 10.8031 10.7834 10.7734 10.7609 10.7422 10.7300 10.7088 10.6834
00.9056 00.9050 00.9056 00.9056 00.9059 00.9062 00.9069 00.9072 00.9072 00.9084 00.9081 00.9078 00.9081 00.9094 00.9100 00.9100 00.9100 00.9100 00.9103 00.9109 00.9112 00.9122 00.9122 00.9134 00.9153 00.9184 00.9225 00.9297 00.9397 00.9547 00.9744 01.0006 01.0359 01.0800 01.1344 01.2094 01.2975 01.4009 01.5153 01.6350 01.7725 01.9194 02.0697 02.2284 02.3869 02.5466 02.7113 02.8741 03.0416 03.2159 03.3866 03.5578 03.7206 03.8725 04.0281 04.1703 04.2991 04.4191 04.5272 04.6350 04.7397 04.8325 04.9259 05.0116 05.0950 05.1844 05.2681 05.3497 05.4400 05.5172 05.5947 05.6703 05.7428 05.8253 05.9016 05.9662 06.0372 06.1003 06.1638 06.2269 06.2744 06.3263 06.3878 06.4431 06.5019 06.5528 06.6006 06.6572 06.7044 06.7484 06.7962 06.8362 06.8775 06.9247 06.9603 06.9988 07.0350 07.0700 07.1078 07.1422 07.1756 07.2169 07.2450 07.2750 07.3075 07.3359 07.3706 07.4059 07.4291 07.4581 07.4816 07.5053 07.5350 07.5491 07.5653 07.5975 07.6178 07.6416 07.6634 07.6803 07.7038 07.7269 07.7425 07.7641 07.7791 07.7950 07.8203 07.8331 07.8488 07.8634 07.8766 07.8944 07.9091 07.9225 07.9444 07.9531 07.9644 07.9794 07.9903 08.0050 08.0256 08.0303 08.0422 08.0522 08.0616 08.0769 08.0787 08.0831 08.0994 08.1100 08.1219 08.1331 08.1406 08.1516 08.1663 08.1719 08.1831 08.1909 08.2006 08.2175 08.2228 08.2300 08.2412 08.2491 08.2600 08.2691 08.2769 08.2894 08.2972 08.3044 08.3159 08.3241 08.3328 08.3484 08.3503 08.3600 08.3712 08.3787 08.3897 08.3937 08.3972 08.4106 08.4194 08.4278 08.4394 08.4469 08.4553 08.4700 08.4762 08.4869 08.4959 08.5041 08.5181 08.5259 08.5331 08.5438 08.5506 08.5594 08.5716 08.5803 08.5916 08.6025 08.6103 08.6222 08.6309 08.6412 08.6566 08.6625 08.6703 08.6822 08.6903 08.7031 08.7128 08.7194 08.7328 08.7441 08.7550 08.7706 08.7794 08.7903 08.8056 08.8156 08.8275 08.8416 08.8544 08.8681 08.8828 08.8944 08.9106 08.9237 08.9384 08.9531 08.9681 08.9841 09.0025 09.0175 09.0347 09.0512 09.0691 09.0894 09.1069 09.1234 09.1444 09.1628 09.1831 09.2059 09.2228 09.2447 09.2678 09.2894 09.3128 09.3356 09.3578 09.3813 09.4034 09.4259 09.4488 09.4691 09.4912 09.5122 09.5319 09.5538 09.5734 09.5931 09.6134 09.6319 09.6525 09.6725 09.6894 09.7081 09.7272 09.7459 09.7644 09.7841 09.8022 09.8225 09.8438 09.8656 09.8875 09.9112 09.9347 09.9578 09.9825 10.0069 10.0322 10.0569 10.0822 10.1056 10.1312 10.1566 10.1813 10.2063 10.2288 10.2525 10.2766 10.2984 10.3222 10.3456 10.3672 10.3891 10.4100 10.4284 10.4497 10.4706 10.4903 10.5119 10.5275 10.5481 10.5666 10.5844 10.6041 10.6216 10.6422 10.6625 10.6741 10.6891 10.7050 10.7184 10.7356 10.7513 10.7613 10.7775 10.7903 10.8019 10.8156 10.8231 10.8338 10.8462 10.8537 10.8647 10.8744 10.8816 10.8903 10.8959 10.9006 10.9100 10.9153 10.9237 10.9306 10.9256 10.9316 10.9356 10.9353 10.9397 10.9388 10.9400 10.9463 10.9409 10.9378 10.9381 10.9319 10.9316 10.9312 10.9172 10.9147 10.9103 10.9034 10.8984 10.8847 10.8766 10.8712 10.8581 10.8503 10.8400 10.8250 10.8156 10.8016 10.7828 10.7741 10.7563 10.7419 10.7294 10.6997
00.9059 00.9059 00.9059 00.9062 00.9069 00.9066 00.9069 00.9075 00.9087 00.9091 00.9091 00.9087 00.9094 00.9097 00.9109 00.9109 00.9122 00.9131 00.9134 00.9141 00.9144 00.9150 00.9159 00.9172 00.9184 00.9216 00.9256 00.9322 00.9412 00.9550 00.9734 00.9988 01.0331 01.0763 01.1269 01.1997 01.2866 01.3872 01.5006 01.6191 01.7528 01.8984 02.0472 02.2053 02.3641 02.5228 02.6878 02.8519 03.0172 03.1931 03.3656 03.5369 03.7016 03.8569 04.0137 04.1591 04.2887 04.4116 04.5200 04.6247 04.7325 04.8275 04.9203 05.0072 05.0912 05.1803 05.2647 05.3462 05.4362 05.5150 05.5916 05.6687 05.7397 05.8175 05.8959 05.9603 06.0312 06.0950 06.1578 06.2256 06.2738 06.3225 06.3869 06.4419 06.5003 06.5528 06.5997 06.6528 06.7041 06.7469 06.7941 06.8338 06.8744 06.9244 06.9606 06.9991 07.0359 07.0694 07.1078 07.1428 07.1756 07.2175 07.2453 07.2747 07.3072 07.3353 07.3662 07.4044 07.4262 07.4534 07.4775 07.5000 07.5297 07.5434 07.5581 07.5881 07.6106 07.6338 07.6569 07.6734 07.6947 07.7200 07.7359 07.7569 07.7722 07.7884 07.8163 07.8291 07.8441 07.8613 07.8750 07.8928 07.9091 07.9225 07.9416 07.9531 07.9631 07.9791 07.9900 08.0028 08.0259 08.0309 08.0412 08.0522 08.0619 08.0769 08.0806 08.0847 08.1000 08.1113 08.1222 08.1338 08.1409 08.1506 08.1684 08.1738 08.1838 08.1916 08.2009 08.2166 08.2216 08.2275 08.2387 08.2472 08.2559 08.2656 08.2716 08.2825 08.2928 08.2981 08.3094 08.3184 08.3269 08.3438 08.3466 08.3538 08.3656 08.3737 08.3844 08.3916 08.3950 08.4078 08.4178 08.4256 08.4378 08.4447 08.4534 08.4694 08.4753 08.4859 08.4950 08.5025 08.5153 08.5237 08.5303 08.5422 08.5497 08.5575 08.5684 08.5772 08.5869 08.5994 08.6066 08.6181 08.6284 08.6375 08.6534 08.6600 08.6672 08.6794 08.6881 08.6988 08.7103 08.7172 08.7291 08.7422 08.7528 08.7684 08.7784 08.7884 08.8044 08.8141 08.8253 08.8397 08.8509 08.8666 08.8819 08.8931 08.9078 08.9212 08.9356 08.9531 08.9675 08.9825 09.0016 09.0156 09.0322 09.0488 09.0659 09.0862 09.1056 09.1219 09.1431 09.1619 09.1822 09.2047 09.2219 09.2431 09.2675 09.2894 09.3119 09.3338 09.3556 09.3803 09.4009 09.4234 09.4472 09.4694 09.4919 09.5131 09.5328 09.5547 09.5744 09.5950 09.6150 09.6331 09.6513 09.6719 09.6894 09.7084 09.7294 09.7491 09.7697 09.7887 09.8081 09.8281 09.8491 09.8700 09.8925 09.9153 09.9378 09.9600 09.9841 10.0078 10.0338 10.0587 10.0853 10.1084 10.1319 10.1566 10.1806 10.2050 10.2275 10.2500 10.2741 10.2963 10.3181 10.3409 10.3622 10.3853 10.4066 10.4259 10.4484 10.4678 10.4875 10.5087 10.5247 10.5444 10.5647 10.5819 10.6013 10.6188 10.6366 10.6575 10.6716 10.6863 10.7044 10.7184 10.7350 10.7503 10.7606 10.7766 10.7897 10.8028 10.8172 10.8256 10.8359 10.8497 10.8575 10.8687 10.8791 10.8863 10.8962 10.9037 10.9072 10.9172 10.9228 10.9294 10.9375 10.9338 10.9372 10.9422 10.9416 10.9447 10.9447 10.9453 10.9528 10.9488 10.9453 10.9459 10.9406 10.9406 10.9406 10.9269 10.9234 10.9194 10.9103 10.9056 10.8931 10.8834 10.8800 10.8669 10.8578 10.8494 10.8337 10.8237 10.8119 10.7928 10.7828 10.7653 10.7484 10.7353 10.7078
00.9072 00.9069 00.9072 00.9066 00.9066 00.9072 00.9075 00.9062 00.9069 00.9072 00.9087 00.9091 00.9091 00.9091 00.9084 00.9078 00.9094 00.9100 00.9100 00.9103 00.9103 00.9103 00.9103 00.9112 00.9125 00.9144 00.9191 00.9269 00.9375 00.9528 00.9722 00.9981 01.0344 01.0788 01.1334 01.2094 01.2988 01.4019 01.5166 01.6369 01.7738 01.9216 02.0725 02.2322 02.3913 02.5506 02.7156 02.8784 03.0456 03.2209 03.3909 03.5628 03.7259 03.8791 04.0347 04.1756 04.3037 04.4231 04.5306 04.6375 04.7425 04.8347 04.9269 05.0119 05.0956 05.1859 05.2694 05.3516 05.4409 05.5172 05.5956 05.6706 05.7413 05.8228 05.8981 05.9628 06.0334 06.0969 06.1603 06.2241 06.2716 06.3244 06.3859 06.4400 06.4994 06.5503 06.5972 06.6534 06.7006 06.7431 06.7903 06.8297 06.8719 06.9184 06.9538 06.9934 07.0288 07.0628 07.1016 07.1353 07.1681 07.2091 07.2378 07.2691 07.2997 07.3269 07.3619 07.3956 07.4172 07.4472 07.4703 07.4938 07.5219 07.5344 07.5509 07.5813 07.6022 07.6266 07.6472 07.6647 07.6891 07.7103 07.7250 07.7450 07.7597 07.7759 07.8016 07.8141 07.8303 07.8456 07.8591 07.8769 07.8919 07.9053 07.9266 07.9353 07.9459 07.9603 07.9709 07.9853 08.0050 08.0106 08.0231 08.0337 08.0441 08.0606 08.0616 08.0669 08.0831 08.0928 08.1044 08.1156 08.1234 08.1353 08.1497 08.1553 08.1675 08.1753 08.1847 08.2009 08.2063 08.2131 08.2241 08.2316 08.2428 08.2516 08.2597 08.2728 08.2806 08.2875 08.2994 08.3075 08.3163 08.3328 08.3356 08.3459 08.3556 08.3637 08.3763 08.3806 08.3841 08.3984 08.4072 08.4172 08.4284 08.4353 08.4431 08.4578 08.4634 08.4747 08.4819 08.4909 08.5056 08.5119 08.5191 08.5300 08.5378 08.5484 08.5600 08.5688 08.5800 08.5909 08.5988 08.6103 08.6197 08.6294 08.6469 08.6519 08.6619 08.6731 08.6825 08.6944 08.7031 08.7106 08.7244 08.7359 08.7472 08.7613 08.7700 08.7813 08.7966 08.8050 08.8175 08.8312 08.8434 08.8584 08.8709 08.8825 08.8978 08.9116 08.9266 08.9428 08.9578 08.9741 08.9919 09.0069 09.0244 09.0406 09.0587 09.0794 09.0978 09.1159 09.1378 09.1569 09.1775 09.2000 09.2181 09.2406 09.2647 09.2866 09.3103 09.3322 09.3541 09.3788 09.3997 09.4219 09.4453 09.4678 09.4900 09.5106 09.5306 09.5522 09.5713 09.5903 09.6109 09.6294 09.6494 09.6694 09.6859 09.7053 09.7250 09.7437 09.7647 09.7837 09.8025 09.8231 09.8438 09.8647 09.8875 09.9112 09.9344 09.9578 09.9822 10.0066 10.0319 10.0572 10.0819 10.1056 10.1297 10.1541 10.1778 10.2031 10.2238 10.2469 10.2713 10.2938 10.3169 10.3397 10.3603 10.3831 10.4034 10.4228 10.4441 10.4650 10.4841 10.5041 10.5197 10.5391 10.5581 10.5763 10.5962 10.6125 10.6325 10.6531 10.6653 10.6800 10.6975 10.7109 10.7272 10.7422 10.7531 10.7688 10.7819 10.7934 10.8084 10.8159 10.8278 10.8416 10.8509 10.8625 10.8716 10.8800 10.8900 10.8950 10.9006 10.9103 10.9153 10.9234 10.9306 10.9253 10.9316 10.9350 10.9344 10.9400 10.9378 10.9403 10.9469 10.9400 10.9369 10.9369 10.9312 10.9313 10.9303 10.9156 10.9134 10.9084 10.9000 10.8953 10.8809 10.8738 10.8678 10.8541 10.8456 10.8353 10.8209 10.8122 10.7988 10.7809 10.7713 10.7522 10.7387 10.7259 10.6953
00.9081 00.9094 00.9100 00.9097 00.9100 00.9103 00.9100 00.9106 00.9112 00.9116 00.9106 00.9106 00.9106 00.9112 00.9119 00.9122 00.9125 00.9134 00.9141 00.9137 00.9141 00.9141 00.9147 00.9159 00.9172 00.9209 00.9253 00.9319 00.9422 00.9581 00.9806 01.0100 01.0478 01.0947 01.1531 01.2316 01.3237 01.4309 01.5478 01.6703 01.8134 01.9613 02.1141 02.2725 02.4309 02.5916 02.7572 02.9203 03.0909 03.2653 03.4350 03.6069 03.7675 03.9181 04.0744 04.2128 04.3394 04.4550 04.5594 04.6681 04.7675 04.8584 04.9503 05.0362 05.1197 05.2087 05.2919 05.3750 05.4625 05.5387 05.6169 05.6887 05.7591 05.8447 05.9147 05.9797 06.0487 06.1116 06.1772 06.2366 06.2831 06.3403 06.3987 06.4519 06.5125 06.5613 06.6084 06.6672 06.7119 06.7559 06.8009 06.8409 06.8878 06.9291 06.9634 07.0034 07.0381 07.0719 07.1116 07.1463 07.1800 07.2197 07.2469 07.2797 07.3078 07.3350 07.3722 07.4003 07.4225 07.4516 07.4738 07.4978 07.5222 07.5350 07.5566 07.5847 07.6053 07.6300 07.6475 07.6638 07.6897 07.7069 07.7225 07.7425 07.7581 07.7769 07.7994 07.8119 07.8288 07.8428 07.8569 07.8750 07.8894 07.9037 07.9234 07.9319 07.9444 07.9587 07.9706 07.9894 08.0062 08.0122 08.0269 08.0359 08.0466 08.0622 08.0625 08.0700 08.0872 08.0972 08.1103 08.1200 08.1275 08.1428 08.1541 08.1609 08.1731 08.1813 08.1906 08.2056 08.2103 08.2194 08.2288 08.2369 08.2481 08.2553 08.2638 08.2778 08.2838 08.2906 08.3022 08.3113 08.3222 08.3344 08.3366 08.3475 08.3556 08.3628 08.3756 08.3778 08.3831 08.3981 08.4059 08.4156 08.4253 08.4322 08.4425 08.4553 08.4603 08.4728 08.4794 08.4869 08.5006 08.5062 08.5147 08.5253 08.5338 08.5453 08.5556 08.5638 08.5766 08.5853 08.5944 08.6069 08.6163 08.6269 08.6431 08.6475 08.6581 08.6688 08.6781 08.6925 08.7003 08.7097 08.7250 08.7363 08.7475 08.7594 08.7684 08.7806 08.7959 08.8047 08.8181 08.8309 08.8444 08.8628 08.8753 08.8878 08.9050 08.9184 08.9337 08.9487 08.9641 08.9803 08.9969 09.0116 09.0300 09.0487 09.0672 09.0888 09.1050 09.1244 09.1453 09.1641 09.1853 09.2044 09.2225 09.2459 09.2691 09.2909 09.3147 09.3369 09.3588 09.3838 09.4063 09.4294 09.4525 09.4744 09.4966 09.5169 09.5378 09.5591 09.5797 09.6003 09.6209 09.6400 09.6606 09.6806 09.6972 09.7181 09.7381 09.7578 09.7787 09.7978 09.8153 09.8356 09.8569 09.8781 09.9009 09.9241 09.9466 09.9700 09.9934 10.0178 10.0428 10.0678 10.0925 10.1150 10.1400 10.1641 10.1884 10.2138 10.2359 10.2600 10.2844 10.3072 10.3303 10.3528 10.3747 10.3969 10.4169 10.4375 10.4597 10.4797 10.5000 10.5200 10.5359 10.5572 10.5756 10.5941 10.6141 10.6291 10.6506 10.6700 10.6819 10.6988 10.7153 10.7300 10.7475 10.7622 10.7734 10.7891 10.8000 10.8141 10.8287 10.8350 10.8478 10.8600 10.8684 10.8800 10.8881 10.8972 10.9056 10.9091 10.9159 10.9241 10.9287 10.9375 10.9422 10.9384 10.9462 10.9463 10.9481 10.9519 10.9484 10.9544 10.9591 10.9506 10.9488 10.9478 10.9422 10.9434 10.9400 10.9262 10.9256 10.9197 10.9128 10.9072 10.8906 10.8844 10.8772 10.8650 10.8569 10.8453 10.8322 10.8231 10.8069 10.7928 10.7841 10.7644 10.7509 10.7359 10.7053
00.9069 00.9059 00.9062 00.9059 00.9059 00.9059 00.9078 00.9084 00.9084 00.9097 00.9094 00.9097 00.9094 00.9097 00.9100 00.9100 00.9097 00.9094 00.9103 00.9106 00.9109 00.9119 00.9119 00.9131 00.9150 00.9181 00.9225 00.9294 00.9394 00.9525 00.9722 00.9975 01.0322 01.0756 01.1272 01.2016 01.2900 01.3922 01.5056 01.6259 01.7616 01.9094 02.0594 02.2178 02.3775 02.5359 02.7009 02.8634 03.0281 03.2053 03.3766 03.5481 03.7131 03.8678 04.0244 04.1675 04.2966 04.4175 04.5256 04.6303 04.7372 04.8303 04.9237 05.0100 05.0925 05.1816 05.2653 05.3472 05.4375 05.5147 05.5909 05.6656 05.7369 05.8150 05.8928 05.9581 06.0284 06.0922 06.1550 06.2212 06.2688 06.3175 06.3797 06.4347 06.4922 06.5444 06.5916 06.6453 06.6953 06.7372 06.7844 06.8256 06.8659 06.9147 06.9494 06.9866 07.0222 07.0559 07.0944 07.1288 07.1619 07.2031 07.2312 07.2600 07.2928 07.3212 07.3522 07.3897 07.4116 07.4400 07.4634 07.4853 07.5141 07.5278 07.5434 07.5741 07.5959 07.6188 07.6394 07.6550 07.6756 07.7006 07.7153 07.7347 07.7491 07.7637 07.7891 07.8012 07.8153 07.8319 07.8456 07.8619 07.8778 07.8906 07.9100 07.9203 07.9309 07.9456 07.9584 07.9716 07.9941 07.9978 08.0094 08.0212 08.0306 08.0459 08.0516 08.0562 08.0722 08.0831 08.0950 08.1088 08.1163 08.1272 08.1438 08.1494 08.1609 08.1706 08.1788 08.1953 08.2009 08.2081 08.2200 08.2281 08.2378 08.2475 08.2534 08.2644 08.2753 08.2809 08.2916 08.2997 08.3084 08.3238 08.3272 08.3347 08.3450 08.3512 08.3628 08.3691 08.3731 08.3856 08.3947 08.4028 08.4153 08.4225 08.4297 08.4450 08.4497 08.4587 08.4681 08.4756 08.4872 08.4966 08.5037 08.5159 08.5241 08.5337 08.5459 08.5544 08.5641 08.5769 08.5850 08.5966 08.6059 08.6159 08.6331 08.6403 08.6484 08.6619 08.6706 08.6822 08.6944 08.7013 08.7125 08.7259 08.7363 08.7509 08.7600 08.7719 08.7875 08.7972 08.8084 08.8234 08.8362 08.8506 08.8662 08.8778 08.8931 08.9072 08.9222 08.9394 08.9541 08.9700 08.9891 09.0034 09.0206 09.0381 09.0562 09.0762 09.0953 09.1128 09.1338 09.1528 09.1731 09.1959 09.2134 09.2344 09.2587 09.2800 09.3034 09.3259 09.3475 09.3703 09.3928 09.4150 09.4381 09.4603 09.4828 09.5038 09.5244 09.5456 09.5659 09.5856 09.6066 09.6256 09.6447 09.6656 09.6828 09.7031 09.7228 09.7419 09.7616 09.7825 09.8009 09.8209 09.8431 09.8650 09.8872 09.9106 09.9331 09.9562 09.9809 10.0053 10.0309 10.0566 10.0834 10.1084 10.1334 10.1581 10.1828 10.2081 10.2325 10.2550 10.2797 10.3019 10.3244 10.3472 10.3688 10.3912 10.4128 10.4319 10.4531 10.4747 10.4941 10.5150 10.5306 10.5491 10.5694 10.5869 10.6066 10.6241 10.6419 10.6637 10.6784 10.6928 10.7100 10.7234 10.7406 10.7575 10.7684 10.7841 10.7978 10.8103 10.8250 10.8341 10.8444 10.8572 10.8650 10.8750 10.8859 10.8928 10.9034 10.9109 10.9134 10.9238 10.9297 10.9375 10.9444 10.9409 10.9444 10.9497 10.9491 10.9516 10.9525 10.9531 10.9600 10.9581 10.9531 10.9547 10.9494 10.9491 10.9491 10.9356 10.9319 10.9288 10.9197 10.9153 10.9053 10.8938 10.8894 10.8766 10.8669 10.8584 10.8431 10.8325 10.8212 10.8012 10.7916 10.7756 10.7575 10.7450 10.7184
00.8987 00.8997 00.8991 00.8997 00.9003 00.9000 00.9003 00.9006 00.9009 00.9028 00.9031 00.9037 00.9044 00.9047 00.9041 00.9041 00.9028 00.9034 00.9037 00.9031 00.9037 00.9044 00.9047 00.9050 00.9053 00.9075 00.9112 00.9175 00.9266 00.9387 00.9575 00.9825 01.0150 01.0575 01.1091 01.1806 01.2672 01.3675 01.4809 01.6006 01.7325 01.8788 02.0297 02.1869 02.3463 02.5047 02.6694 02.8328 02.9969 03.1731 03.3456 03.5162 03.6831 03.8391 03.9934 04.1397 04.2709 04.3941 04.5031 04.6056 04.7159 04.8100 04.9022 04.9903 05.0741 05.1619 05.2472 05.3291 05.4187 05.4972 05.5719 05.6497 05.7203 05.7944 05.8750 05.9406 06.0097 06.0737 06.1353 06.2038 06.2516 06.2994 06.3613 06.4166 06.4731 06.5278 06.5747 06.6259 06.6787 06.7219 06.7691 06.8094 06.8497 06.9006 06.9363 06.9719 07.0094 07.0437 07.0813 07.1159 07.1481 07.1875 07.2169 07.2447 07.2778 07.3050 07.3341 07.3737 07.3953 07.4216 07.4466 07.4684 07.4969 07.5119 07.5266 07.5559 07.5778 07.5988 07.6216 07.6384 07.6572 07.6838 07.7000 07.7194 07.7344 07.7503 07.7769 07.7900 07.8037 07.8213 07.8344 07.8497 07.8653 07.8794 07.8972 07.9103 07.9200 07.9356 07.9478 07.9600 07.9844 07.9903 07.9987 08.0116 08.0203 08.0344 08.0394 08.0422 08.0559 08.0672 08.0778 08.0919 08.0997 08.1078 08.1262 08.1319 08.1413 08.1503 08.1581 08.1738 08.1813 08.1875 08.2006 08.2081 08.2175 08.2278 08.2347 08.2444 08.2575 08.2625 08.2738 08.2822 08.2900 08.3069 08.3097 08.3169 08.3294 08.3362 08.3469 08.3544 08.3566 08.3675 08.3775 08.3850 08.3969 08.4047 08.4128 08.4291 08.4350 08.4444 08.4550 08.4616 08.4728 08.4825 08.4900 08.5016 08.5094 08.5184 08.5309 08.5400 08.5494 08.5634 08.5709 08.5825 08.5925 08.6028 08.6178 08.6262 08.6334 08.6466 08.6544 08.6666 08.6803 08.6869 08.6978 08.7122 08.7231 08.7372 08.7475 08.7591 08.7744 08.7844 08.7950 08.8100 08.8231 08.8369 08.8534 08.8653 08.8803 08.8947 08.9100 08.9262 08.9406 08.9562 08.9750 08.9887 09.0059 09.0244 09.0419 09.0603 09.0806 09.0969 09.1178 09.1372 09.1581 09.1806 09.1984 09.2194 09.2444 09.2659 09.2891 09.3125 09.3350 09.3584 09.3813 09.4031 09.4259 09.4478 09.4709 09.4931 09.5122 09.5341 09.5547 09.5744 09.5934 09.6122 09.6313 09.6516 09.6684 09.6881 09.7081 09.7275 09.7466 09.7666 09.7856 09.8056 09.8263 09.8478 09.8688 09.8913 09.9150 09.9394 09.9637 09.9881 10.0141 10.0403 10.0663 10.0903 10.1141 10.1378 10.1622 10.1878 10.2113 10.2338 10.2581 10.2816 10.3047 10.3281 10.3500 10.3725 10.3947 10.4131 10.4347 10.4547 10.4750 10.4959 10.5125 10.5319 10.5525 10.5709 10.5897 10.6066 10.6253 10.6462 10.6606 10.6747 10.6919 10.7053 10.7225 10.7394 10.7491 10.7628 10.7769 10.7897 10.8044 10.8128 10.8225 10.8356 10.8434 10.8541 10.8650 10.8725 10.8822 10.8903 10.8934 10.9031 10.9097 10.9166 10.9241 10.9216 10.9244 10.9316 10.9297 10.9337 10.9347 10.9344 10.9406 10.9384 10.9334 10.9338 10.9291 10.9272 10.9278 10.9153 10.9103 10.9075 10.8987 10.8944 10.8844 10.8709 10.8669 10.8541 10.8450 10.8353 10.8191 10.8097 10.7994 10.7797 10.7703 10.7553 10.7381 10.7269 10.7009
00.9028 00.9031 00.9041 00.9034 00.9041 00.9044 00.9050 00.9050 00.9044 00.9047 00.9056 00.9050 00.9047 00.9050 00.9053 00.9059 00.9066 00.9056 00.9056 00.9047 00.9056 00.9066 00.9075 00.9100 00.9119 00.9144 00.9197 00.9294 00.9412 00.9584 00.9806 01.0116 01.0519 01.1003 01.1656 01.2472 01.3425 01.4544 01.5722 01.7000 01.8450 01.9950 02.1503 02.3097 02.4681 02.6334 02.7978 02.9591 03.1344 03.3081 03.4791 03.6484 03.8072 03.9597 04.1125 04.2481 04.3734 04.4850 04.5884 04.7000 04.7966 04.8872 04.9769 05.0616 05.1481 05.2337 05.3159 05.4034 05.4850 05.5584 05.6375 05.7091 05.7800 05.8647 05.9316 05.9984 06.0653 06.1275 06.1953 06.2481 06.2950 06.3553 06.4125 06.4669 06.5244 06.5725 06.6209 06.6781 06.7216 06.7687 06.8106 06.8500 06.9006 06.9378 06.9716 07.0119 07.0466 07.0819 07.1197 07.1519 07.1884 07.2222 07.2484 07.2812 07.3084 07.3356 07.3759 07.3991 07.4228 07.4497 07.4713 07.4978 07.5172 07.5309 07.5572 07.5800 07.5997 07.6253 07.6416 07.6597 07.6881 07.7041 07.7222 07.7391 07.7544 07.7788 07.7947 07.8072 07.8250 07.8375 07.8519 07.8700 07.8828 07.8978 07.9150 07.9231 07.9381 07.9491 07.9600 07.9819 07.9906 07.9981 08.0125 08.0209 08.0334 08.0434 08.0459 08.0578 08.0709 08.0816 08.0962 08.1041 08.1125 08.1309 08.1378 08.1466 08.1566 08.1653 08.1787 08.1894 08.1947 08.2066 08.2153 08.2247 08.2359 08.2425 08.2500 08.2650 08.2713 08.2812 08.2906 08.2991 08.3138 08.3203 08.3244 08.3369 08.3453 08.3531 08.3641 08.3653 08.3741 08.3862 08.3931 08.4050 08.4128 08.4197 08.4356 08.4425 08.4494 08.4606 08.4672 08.4766 08.4881 08.4944 08.5069 08.5153 08.5241 08.5375 08.5456 08.5547 08.5691 08.5759 08.5853 08.5963 08.6059 08.6200 08.6309 08.6372 08.6513 08.6600 08.6706 08.6853 08.6922 08.7022 08.7169 08.7281 08.7413 08.7516 08.7628 08.7778 08.7900 08.8012 08.8175 08.8297 08.8431 08.8594 08.8703 08.8841 08.8978 08.9125 08.9291 08.9434 08.9591 08.9781 08.9925 09.0084 09.0269 09.0456 09.0637 09.0844 09.1003 09.1200 09.1394 09.1591 09.1819 09.2006 09.2216 09.2459 09.2681 09.2906 09.3147 09.3366 09.3594 09.3828 09.4047 09.4275 09.4494 09.4712 09.4937 09.5125 09.5344 09.5553 09.5747 09.5969 09.6169 09.6363 09.6566 09.6750 09.6938 09.7150 09.7337 09.7541 09.7747 09.7931 09.8125 09.8341 09.8550 09.8772 09.8994 09.9234 09.9462 09.9712 09.9959 10.0197 10.0447 10.0700 10.0944 10.1187 10.1437 10.1666 10.1919 10.2156 10.2369 10.2616 10.2847 10.3075 10.3313 10.3528 10.3762 10.3991 10.4175 10.4375 10.4587 10.4794 10.5000 10.5166 10.5350 10.5550 10.5728 10.5934 10.6116 10.6287 10.6516 10.6669 10.6800 10.6978 10.7116 10.7281 10.7447 10.7544 10.7688 10.7841 10.7966 10.8109 10.8222 10.8322 10.8459 10.8553 10.8650 10.8753 10.8822 10.8913 10.8997 10.9019 10.9119 10.9191 10.9262 10.9337 10.9325 10.9334 10.9412 10.9394 10.9413 10.9428 10.9406 10.9472 10.9469 10.9400 10.9403 10.9366 10.9344 10.9359 10.9237 10.9175 10.9153 10.9062 10.9009 10.8922 10.8794 10.8759 10.8644 10.8553 10.8469 10.8316 10.8219 10.8116 10.7912 10.7812 10.7681 10.7491 10.7366 10.7128 10.6906
00.9003 00.9006 00.9016 00.9012 00.9009 00.9022 00.9031 00.9022 00.9019 00.9022 00.9028 00.9034 00.9047 00.9053 00.9050 00.9059 00.9069 00.9078 00.9091 00.9084 00.9084 00.9094 00.9103 00.9128 00.9147 00.9181 00.9237 00.9331 00.9469 00.9644 00.9872 01.0175 01.0581 01.1072 01.1741 01.2562 01.3519 01.4625 01.5803 01.7097 01.8553 02.0038 02.1600 02.3194 02.4784 02.6438 02.8088 02.9713 03.1466 03.3197 03.4900 03.6587 03.8156 03.9672 04.1181 04.2522 04.3781 04.4894 04.5928 04.7022 04.7987 04.8909 04.9806 05.0641 05.1512 05.2372 05.3181 05.4056 05.4856 05.5597 05.6387 05.7106 05.7828 05.8691 05.9356 06.0038 06.0687 06.1319 06.1997 06.2522 06.2988 06.3584 06.4138 06.4688 06.5253 06.5719 06.6203 06.6781 06.7212 06.7681 06.8091 06.8488 06.8984 06.9331 06.9675 07.0066 07.0409 07.0750 07.1116 07.1441 07.1806 07.2147 07.2422 07.2750 07.3016 07.3294 07.3697 07.3912 07.4153 07.4416 07.4634 07.4897 07.5091 07.5228 07.5491 07.5725 07.5919 07.6175 07.6334 07.6513 07.6791 07.6944 07.7119 07.7287 07.7447 07.7684 07.7856 07.7988 07.8172 07.8306 07.8456 07.8631 07.8762 07.8912 07.9091 07.9175 07.9319 07.9431 07.9550 07.9775 07.9872 07.9947 08.0091 08.0187 08.0306 08.0406 08.0422 08.0534 08.0659 08.0766 08.0909 08.0987 08.1069 08.1256 08.1316 08.1400 08.1516 08.1603 08.1728 08.1834 08.1884 08.2003 08.2081 08.2159 08.2278 08.2338 08.2409 08.2553 08.2619 08.2716 08.2806 08.2878 08.3028 08.3097 08.3144 08.3272 08.3353 08.3444 08.3566 08.3575 08.3650 08.3769 08.3853 08.3972 08.4047 08.4122 08.4272 08.4356 08.4422 08.4544 08.4609 08.4719 08.4844 08.4909 08.5016 08.5097 08.5178 08.5297 08.5375 08.5469 08.5625 08.5706 08.5803 08.5906 08.6009 08.6147 08.6269 08.6322 08.6453 08.6547 08.6653 08.6797 08.6850 08.6944 08.7106 08.7219 08.7347 08.7463 08.7572 08.7713 08.7831 08.7934 08.8081 08.8212 08.8344 08.8516 08.8637 08.8778 08.8925 08.9056 08.9225 08.9369 08.9531 08.9731 08.9878 09.0047 09.0234 09.0419 09.0603 09.0819 09.0988 09.1184 09.1378 09.1578 09.1806 09.1994 09.2194 09.2441 09.2669 09.2894 09.3128 09.3350 09.3578 09.3806 09.4022 09.4247 09.4475 09.4694 09.4919 09.5109 09.5322 09.5534 09.5734 09.5944 09.6134 09.6328 09.6534 09.6716 09.6897 09.7103 09.7300 09.7503 09.7709 09.7900 09.8094 09.8309 09.8516 09.8731 09.8959 09.9203 09.9431 09.9672 09.9928 10.0184 10.0450 10.0703 10.0953 10.1197 10.1450 10.1706 10.1953 10.2203 10.2422 10.2669 10.2900 10.3119 10.3359 10.3584 10.3819 10.4050 10.4241 10.4462 10.4675 10.4872 10.5078 10.5259 10.5431 10.5644 10.5822 10.6003 10.6194 10.6353 10.6572 10.6741 10.6875 10.7066 10.7213 10.7381 10.7544 10.7650 10.7791 10.7934 10.8059 10.8209 10.8328 10.8400 10.8534 10.8625 10.8725 10.8844 10.8916 10.9009 10.9109 10.9134 10.9228 10.9294 10.9350 10.9422 10.9431 10.9434 10.9506 10.9509 10.9528 10.9550 10.9534 10.9613 10.9638 10.9572 10.9572 10.9534 10.9509 10.9522 10.9428 10.9337 10.9319 10.9234 10.9181 10.9109 10.8956 10.8909 10.8816 10.8691 10.8606 10.8469 10.8356 10.8256 10.8047 10.7937 10.7812 10.7622 10.7494 10.7297 10.7037
00.9106 00.9106 00.9106 00.9106 00.9119 00.9125 00.9125 00.9119 00.9125 00.9128 00.9128 00.9128 00.9119 00.9125 00.9119 00.9119 00.9125 00.9131 00.9141 00.9150 00.9150 00.9147 00.9150 00.9166 00.9187 00.9222 00.9284 00.9375 00.9497 00.9666 00.9897 01.0206 01.0619 01.1109 01.1769 01.2600 01.3550 01.4653 01.5831 01.7109 01.8563 02.0053 02.1616 02.3203 02.4784 02.6425 02.8078 02.9694 03.1434 03.3172 03.4875 03.6559 03.8137 03.9653 04.1166 04.2494 04.3753 04.4872 04.5903 04.7003 04.7962 04.8869 04.9762 05.0600 05.1469 05.2331 05.3144 05.4028 05.4837 05.5575 05.6359 05.7078 05.7794 05.8653 05.9322 06.0006 06.0675 06.1297 06.1959 06.2481 06.2947 06.3553 06.4116 06.4666 06.5231 06.5706 06.6178 06.6753 06.7194 06.7650 06.8069 06.8459 06.8956 06.9316 06.9656 07.0047 07.0381 07.0728 07.1106 07.1425 07.1794 07.2134 07.2403 07.2725 07.2984 07.3250 07.3662 07.3878 07.4116 07.4391 07.4606 07.4872 07.5059 07.5188 07.5450 07.5678 07.5875 07.6128 07.6284 07.6459 07.6728 07.6888 07.7056 07.7231 07.7387 07.7625 07.7781 07.7906 07.8081 07.8213 07.8347 07.8525 07.8666 07.8809 07.8991 07.9081 07.9225 07.9337 07.9456 07.9681 07.9775 07.9844 07.9984 08.0069 08.0197 08.0297 08.0316 08.0425 08.0559 08.0659 08.0806 08.0881 08.0956 08.1144 08.1200 08.1278 08.1394 08.1484 08.1616 08.1728 08.1784 08.1903 08.1994 08.2084 08.2197 08.2272 08.2356 08.2509 08.2572 08.2675 08.2778 08.2869 08.3013 08.3088 08.3134 08.3266 08.3338 08.3422 08.3541 08.3553 08.3628 08.3756 08.3828 08.3950 08.4031 08.4100 08.4250 08.4322 08.4387 08.4500 08.4566 08.4650 08.4775 08.4844 08.4956 08.5041 08.5131 08.5253 08.5328 08.5428 08.5581 08.5653 08.5750 08.5856 08.5959 08.6097 08.6212 08.6275 08.6409 08.6497 08.6606 08.6759 08.6828 08.6919 08.7078 08.7188 08.7316 08.7438 08.7553 08.7688 08.7825 08.7922 08.8081 08.8212 08.8341 08.8512 08.8628 08.8772 08.8916 08.9069 08.9225 08.9366 08.9519 08.9716 08.9856 09.0022 09.0213 09.0384 09.0575 09.0794 09.0944 09.1147 09.1344 09.1534 09.1766 09.1953 09.2159 09.2406 09.2631 09.2853 09.3097 09.3325 09.3556 09.3788 09.4009 09.4241 09.4466 09.4694 09.4912 09.5103 09.5328 09.5544 09.5747 09.5966 09.6169 09.6356 09.6566 09.6756 09.6950 09.7156 09.7350 09.7550 09.7762 09.7956 09.8153 09.8366 09.8572 09.8791 09.9019 09.9256 09.9481 09.9731 09.9975 10.0219 10.0469 10.0725 10.0969 10.1206 10.1453 10.1694 10.1953 10.2194 10.2416 10.2656 10.2888 10.3113 10.3353 10.3575 10.3800 10.4028 10.4222 10.4419 10.4631 10.4834 10.5044 10.5228 10.5406 10.5622 10.5800 10.6000 10.6181 10.6350 10.6569 10.6744 10.6872 10.7059 10.7206 10.7366 10.7544 10.7656 10.7794 10.7950 10.8078 10.8225 10.8347 10.8425 10.8553 10.8634 10.8737 10.8847 10.8919 10.9016 10.9097 10.9109 10.9203 10.9263 10.9319 10.9403 10.9403 10.9400 10.9472 10.9456 10.9478 10.9506 10.9481 10.9547 10.9566 10.9500 10.9497 10.9466 10.9437 10.9441 10.9350 10.9278 10.9263 10.9178 10.9137 10.9063 10.8913 10.8869 10.8766 10.8663 10.8581 10.8431 10.8322 10.8225 10.8025 10.7912 10.7788 10.7594 10.7475 10.7272 10.7019
00.9112 00.9109 00.9112 00.9122 00.9125 00.9131 00.9144 00.9150 00.9147 00.9144 00.9141 00.9144 00.9141 00.9134 00.9137 00.9131 00.9128 00.9128 00.9122 00.9128 00.9119 00.9116 00.9122 00.9125 00.9156 00.9187 00.9241 00.9325 00.9453 00.9634 00.9869 01.0178 01.0578 01.1075 01.1725 01.2544 01.3491 01.4603 01.5784 01.7038 01.8500 01.9997 02.1544 02.3141 02.4719 02.6356 02.8009 02.9628 03.1375 03.3106 03.4809 03.6506 03.8097 03.9609 04.1134 04.2497 04.3762 04.4881 04.5925 04.7034 04.7997 04.8906 04.9822 05.0659 05.1509 05.2378 05.3200 05.4069 05.4887 05.5631 05.6406 05.7119 05.7816 05.8675 05.9337 05.9994 06.0659 06.1278 06.1937 06.2475 06.2941 06.3534 06.4094 06.4641 06.5216 06.5688 06.6150 06.6722 06.7156 06.7609 06.8041 06.8431 06.8928 06.9294 06.9634 07.0034 07.0372 07.0716 07.1091 07.1419 07.1759 07.2112 07.2384 07.2706 07.2975 07.3247 07.3650 07.3887 07.4116 07.4387 07.4603 07.4866 07.5069 07.5197 07.5441 07.5675 07.5866 07.6122 07.6288 07.6450 07.6734 07.6891 07.7059 07.7234 07.7388 07.7616 07.7794 07.7916 07.8091 07.8222 07.8353 07.8528 07.8662 07.8806 07.9009 07.9106 07.9253 07.9372 07.9487 07.9706 07.9819 07.9881 08.0022 08.0116 08.0234 08.0341 08.0353 08.0450 08.0591 08.0697 08.0850 08.0934 08.1022 08.1203 08.1266 08.1334 08.1450 08.1534 08.1647 08.1769 08.1828 08.1950 08.2037 08.2125 08.2247 08.2316 08.2397 08.2538 08.2606 08.2700 08.2797 08.2875 08.3006 08.3094 08.3131 08.3250 08.3328 08.3403 08.3531 08.3544 08.3600 08.3734 08.3806 08.3916 08.4000 08.4081 08.4216 08.4316 08.4375 08.4491 08.4562 08.4647 08.4784 08.4856 08.4962 08.5066 08.5150 08.5275 08.5356 08.5447 08.5600 08.5669 08.5766 08.5878 08.5978 08.6091 08.6231 08.6288 08.6416 08.6513 08.6616 08.6772 08.6831 08.6913 08.7072 08.7181 08.7309 08.7434 08.7547 08.7684 08.7825 08.7937 08.8091 08.8225 08.8353 08.8531 08.8650 08.8791 08.8944 08.9087 08.9250 08.9403 08.9566 08.9750 08.9903 09.0066 09.0253 09.0434 09.0622 09.0841 09.1000 09.1197 09.1397 09.1591 09.1822 09.2019 09.2209 09.2447 09.2669 09.2888 09.3125 09.3344 09.3566 09.3806 09.4022 09.4250 09.4475 09.4697 09.4919 09.5113 09.5322 09.5531 09.5728 09.5941 09.6144 09.6338 09.6544 09.6741 09.6934 09.7147 09.7344 09.7541 09.7756 09.7953 09.8156 09.8372 09.8581 09.8800 09.9041 09.9281 09.9528 09.9775 10.0031 10.0281 10.0531 10.0787 10.1047 10.1291 10.1544 10.1791 10.2041 10.2300 10.2522 10.2766 10.2994 10.3219 10.3459 10.3684 10.3903 10.4134 10.4328 10.4541 10.4750 10.4950 10.5150 10.5334 10.5494 10.5697 10.5866 10.6053 10.6244 10.6397 10.6603 10.6784 10.6909 10.7078 10.7228 10.7384 10.7550 10.7672 10.7788 10.7928 10.8053 10.8194 10.8328 10.8400 10.8547 10.8653 10.8750 10.8866 10.8947 10.9044 10.9138 10.9156 10.9250 10.9334 10.9391 10.9462 10.9481 10.9462 10.9550 10.9550 10.9572 10.9616 10.9600 10.9669 10.9691 10.9606 10.9609 10.9584 10.9553 10.9559 10.9491 10.9394 10.9372 10.9287 10.9241 10.9191 10.9038 10.8994 10.8900 10.8781 10.8694 10.8547 10.8419 10.8331 10.8137 10.8028 10.7916 10.7719 10.7581 10.7403 10.7122
00.9056 00.9050 00.9050 00.9050 00.9066 00.9075 00.9078 00.9078 00.9072 00.9072 00.9072 00.9075 00.9081 00.9087 00.9100 00.9103 00.9100 00.9116 00.9112 00.9119 00.9125 00.9131 00.9137 00.9144 00.9150 00.9181 00.9228 00.9306 00.9419 00.9584 00.9794 01.0072 01.0456 01.0919 01.1484 01.2259 01.3172 01.4228 01.5400 01.6612 01.8009 01.9500 02.1019 02.2613 02.4219 02.5825 02.7500 02.9134 03.0822 03.2575 03.4281 03.5997 03.7622 03.9147 04.0709 04.2106 04.3378 04.4544 04.5603 04.6681 04.7709 04.8619 04.9544 05.0397 05.1219 05.2106 05.2916 05.3725 05.4616 05.5372 05.6141 05.6869 05.7559 05.8372 05.9097 05.9744 06.0444 06.1078 06.1703 06.2319 06.2778 06.3316 06.3906 06.4444 06.5041 06.5538 06.6006 06.6581 06.7041 06.7462 06.7931 06.8328 06.8759 06.9203 06.9534 06.9922 07.0263 07.0597 07.0981 07.1313 07.1634 07.2031 07.2309 07.2616 07.2900 07.3166 07.3516 07.3825 07.4022 07.4306 07.4509 07.4731 07.4994 07.5119 07.5297 07.5584 07.5788 07.6019 07.6206 07.6372 07.6628 07.6816 07.6959 07.7163 07.7313 07.7478 07.7722 07.7850 07.8019 07.8166 07.8303 07.8488 07.8625 07.8756 07.8972 07.9059 07.9169 07.9312 07.9437 07.9597 07.9778 07.9834 07.9966 08.0050 08.0147 08.0312 08.0319 08.0369 08.0537 08.0647 08.0772 08.0875 08.0953 08.1084 08.1216 08.1278 08.1397 08.1478 08.1559 08.1725 08.1778 08.1869 08.1978 08.2072 08.2184 08.2250 08.2331 08.2469 08.2538 08.2600 08.2719 08.2806 08.2906 08.3044 08.3069 08.3175 08.3278 08.3359 08.3494 08.3522 08.3553 08.3681 08.3762 08.3850 08.3953 08.4028 08.4116 08.4259 08.4312 08.4434 08.4516 08.4597 08.4744 08.4828 08.4912 08.5022 08.5109 08.5203 08.5309 08.5394 08.5531 08.5644 08.5734 08.5866 08.5969 08.6084 08.6259 08.6316 08.6422 08.6538 08.6631 08.6772 08.6866 08.6941 08.7084 08.7203 08.7309 08.7459 08.7556 08.7688 08.7844 08.7941 08.8069 08.8206 08.8337 08.8506 08.8641 08.8762 08.8922 08.9059 08.9212 08.9369 08.9516 08.9684 08.9866 09.0013 09.0200 09.0378 09.0562 09.0775 09.0947 09.1128 09.1338 09.1522 09.1734 09.1944 09.2125 09.2356 09.2597 09.2819 09.3063 09.3288 09.3522 09.3763 09.3988 09.4213 09.4428 09.4653 09.4881 09.5081 09.5281 09.5500 09.5706 09.5916 09.6131 09.6325 09.6525 09.6725 09.6897 09.7109 09.7309 09.7509 09.7719 09.7919 09.8109 09.8325 09.8556 09.8775 09.9000 09.9241 09.9484 09.9725 09.9972 10.0222 10.0472 10.0728 10.0981 10.1222 10.1478 10.1719 10.1953 10.2213 10.2431 10.2669 10.2903 10.3119 10.3347 10.3563 10.3788 10.4019 10.4219 10.4409 10.4625 10.4822 10.5022 10.5222 10.5388 10.5597 10.5788 10.5972 10.6181 10.6344 10.6537 10.6747 10.6869 10.7044 10.7219 10.7372 10.7547 10.7688 10.7800 10.7975 10.8109 10.8250 10.8397 10.8472 10.8600 10.8722 10.8806 10.8925 10.9019 10.9094 10.9203 10.9250 10.9319 10.9406 10.9447 10.9525 10.9584 10.9547 10.9622 10.9638 10.9638 10.9675 10.9659 10.9703 10.9766 10.9697 10.9675 10.9672 10.9609 10.9616 10.9581 10.9434 10.9413 10.9359 10.9291 10.9234 10.9075 10.9009 10.8941 10.8803 10.8728 10.8625 10.8484 10.8387 10.8225 10.8059 10.7969 10.7769 10.7634 10.7497 10.7197
00.9091 00.9094 00.9094 00.9097 00.9100 00.9094 00.9100 00.9109 00.9100 00.9100 00.9100 00.9091 00.9091 00.9094 00.9097 00.9097 00.9103 00.9100 00.9103 00.9112 00.9116 00.9119 00.9128 00.9134 00.9131 00.9150 00.9172 00.9209 00.9287 00.9387 00.9541 00.9756 01.0025 01.0397 01.0863 01.1434 01.2200 01.3119 01.4169 01.5331 01.6544 01.7947 01.9428 02.0953 02.2559 02.4153 02.5769 02.7431 02.9069 03.0772 03.2531 03.4234 03.5959 03.7587 03.9109 04.0669 04.2081 04.3353 04.4525 04.5584 04.6672 04.7687 04.8600 04.9522 05.0378 05.1212 05.2109 05.2941 05.3762 05.4644 05.5412 05.6191 05.6919 05.7616 05.8431 05.9159 05.9803 06.0497 06.1128 06.1756 06.2369 06.2838 06.3378 06.3963 06.4494 06.5075 06.5556 06.6019 06.6578 06.7034 06.7447 06.7897 06.8303 06.8741 06.9188 06.9522 06.9903 07.0241 07.0575 07.0956 07.1278 07.1600 07.1994 07.2272 07.2572 07.2866 07.3137 07.3478 07.3787 07.3984 07.4275 07.4506 07.4725 07.4981 07.5103 07.5275 07.5566 07.5772 07.6009 07.6200 07.6372 07.6619 07.6806 07.6950 07.7144 07.7284 07.7441 07.7687 07.7809 07.7975 07.8122 07.8250 07.8422 07.8562 07.8694 07.8903 07.8978 07.9088 07.9231 07.9347 07.9512 07.9694 07.9747 07.9878 07.9972 08.0081 08.0244 08.0250 08.0303 08.0475 08.0578 08.0703 08.0816 08.0894 08.1031 08.1163 08.1234 08.1363 08.1441 08.1528 08.1681 08.1731 08.1825 08.1938 08.2022 08.2134 08.2225 08.2300 08.2450 08.2525 08.2588 08.2703 08.2784 08.2884 08.3022 08.3050 08.3156 08.3253 08.3338 08.3463 08.3494 08.3531 08.3669 08.3747 08.3844 08.3950 08.4019 08.4119 08.4256 08.4309 08.4441 08.4512 08.4591 08.4734 08.4800 08.4887 08.5000 08.5078 08.5169 08.5288 08.5375 08.5503 08.5606 08.5697 08.5816 08.5916 08.6025 08.6194 08.6241 08.6341 08.6444 08.6544 08.6691 08.6778 08.6859 08.6994 08.7109 08.7225 08.7378 08.7475 08.7597 08.7763 08.7859 08.7981 08.8128 08.8247 08.8406 08.8537 08.8672 08.8831 08.8975 08.9134 08.9294 08.9447 08.9609 08.9797 08.9944 09.0128 09.0306 09.0488 09.0703 09.0881 09.1066 09.1291 09.1481 09.1703 09.1925 09.2109 09.2334 09.2575 09.2794 09.3031 09.3253 09.3481 09.3728 09.3944 09.4175 09.4403 09.4625 09.4853 09.5072 09.5269 09.5491 09.5684 09.5888 09.6088 09.6275 09.6478 09.6684 09.6863 09.7075 09.7275 09.7475 09.7687 09.7897 09.8100 09.8303 09.8513 09.8731 09.8969 09.9200 09.9437 09.9684 09.9934 10.0191 10.0456 10.0716 10.0975 10.1219 10.1475 10.1722 10.1975 10.2228 10.2447 10.2688 10.2922 10.3147 10.3388 10.3616 10.3828 10.4050 10.4259 10.4453 10.4672 10.4866 10.5072 10.5269 10.5438 10.5647 10.5828 10.6009 10.6206 10.6378 10.6584 10.6794 10.6922 10.7097 10.7272 10.7425 10.7600 10.7753 10.7859 10.8019 10.8150 10.8300 10.8437 10.8519 10.8641 10.8753 10.8841 10.8956 10.9056 10.9131 10.9238 10.9275 10.9338 10.9428 10.9469 10.9547 10.9606 10.9559 10.9631 10.9656 10.9663 10.9691 10.9675 10.9719 10.9775 10.9713 10.9703 10.9700 10.9638 10.9650 10.9619 10.9478 10.9459 10.9400 10.9347 10.9297 10.9138 10.9072 10.9013 10.8875 10.8794 10.8694 10.8556 10.8450 10.8287 10.8122 10.8019 10.7834 10.7684 10.7538
00.9084 00.9097 00.9087 00.9087 00.9091 00.9081 00.9078 00.9081 00.9091 00.9084 00.9091 00.9094 00.9091 00.9094 00.9100 00.9091 00.9094 00.9084 00.9091 00.9087 00.9084 00.9087 00.9103 00.9106 00.9122 00.9159 00.9216 00.9287 00.9394 00.9572 00.9788 01.0072 01.0466 01.0944 01.1550 01.2366 01.3291 01.4381 01.5556 01.6791 01.8241 01.9734 02.1269 02.2872 02.4472 02.6100 02.7763 02.9406 03.1141 03.2884 03.4594 03.6300 03.7903 03.9406 04.0969 04.2337 04.3606 04.4766 04.5816 04.6925 04.7900 04.8809 04.9734 05.0581 05.1419 05.2300 05.3109 05.3941 05.4781 05.5537 05.6325 05.7053 05.7753 05.8612 05.9281 05.9934 06.0616 06.1228 06.1872 06.2434 06.2894 06.3459 06.4025 06.4553 06.5131 06.5609 06.6081 06.6662 06.7106 06.7537 06.7963 06.8353 06.8825 06.9228 06.9566 06.9947 07.0272 07.0600 07.0975 07.1303 07.1631 07.2012 07.2278 07.2600 07.2878 07.3153 07.3528 07.3787 07.4000 07.4284 07.4503 07.4731 07.4959 07.5078 07.5309 07.5578 07.5788 07.6041 07.6216 07.6391 07.6672 07.6828 07.6991 07.7175 07.7325 07.7512 07.7716 07.7844 07.8022 07.8159 07.8294 07.8484 07.8622 07.8747 07.8941 07.9031 07.9159 07.9294 07.9409 07.9597 07.9722 07.9787 07.9934 08.0019 08.0128 08.0266 08.0278 08.0344 08.0500 08.0594 08.0731 08.0822 08.0894 08.1072 08.1156 08.1222 08.1344 08.1422 08.1525 08.1669 08.1731 08.1841 08.1928 08.2022 08.2137 08.2216 08.2294 08.2456 08.2516 08.2606 08.2719 08.2800 08.2928 08.3038 08.3069 08.3184 08.3256 08.3331 08.3463 08.3481 08.3531 08.3666 08.3744 08.3841 08.3928 08.3991 08.4109 08.4219 08.4281 08.4397 08.4459 08.4550 08.4687 08.4747 08.4853 08.4956 08.5047 08.5166 08.5256 08.5344 08.5484 08.5566 08.5656 08.5778 08.5884 08.6009 08.6172 08.6216 08.6334 08.6437 08.6544 08.6694 08.6766 08.6856 08.7009 08.7122 08.7244 08.7375 08.7484 08.7613 08.7766 08.7869 08.8009 08.8147 08.8275 08.8450 08.8559 08.8703 08.8859 08.9003 08.9169 08.9322 08.9478 08.9666 08.9831 08.9994 09.0191 09.0369 09.0559 09.0791 09.0959 09.1159 09.1381 09.1578 09.1813 09.2013 09.2209 09.2447 09.2681 09.2906 09.3147 09.3369 09.3594 09.3825 09.4044 09.4266 09.4484 09.4706 09.4928 09.5119 09.5331 09.5544 09.5741 09.5947 09.6153 09.6347 09.6562 09.6759 09.6938 09.7147 09.7344 09.7556 09.7781 09.7978 09.8181 09.8406 09.8638 09.8869 09.9109 09.9347 09.9581 09.9831 10.0075 10.0331 10.0584 10.0841 10.1087 10.1334 10.1594 10.1838 10.2091 10.2334 10.2547 10.2788 10.3016 10.3234 10.3459 10.3675 10.3887 10.4116 10.4312 10.4509 10.4734 10.4934 10.5147 10.5341 10.5509 10.5725 10.5906 10.6106 10.6306 10.6472 10.6691 10.6891 10.7019 10.7194 10.7341 10.7509 10.7691 10.7831 10.7963 10.8125 10.8247 10.8388 10.8506 10.8581 10.8719 10.8816 10.8909 10.9016 10.9091 10.9184 10.9281 10.9309 10.9394 10.9481 10.9553 10.9631 10.9659 10.9625 10.9709 10.9709 10.9728 10.9766 10.9750 10.9819 10.9850 10.9772 10.9772 10.9759 10.9725 10.9728 10.9656 10.9541 10.9522 10.9450 10.9397 10.9338 10.9169 10.9125 10.9034 10.8916 10.8831 10.8706 10.8581 10.8472 10.8284 10.8172 10.8059 10.7850 10.7716 10.7547 10.7272
00.9137 00.9137 00.9144 00.9150 00.9153 00.9159 00.9162 00.9162 00.9159 00.9162 00.9153 00.9147 00.9150 00.9144 00.9141 00.9137 00.9134 00.9128 00.9122 00.9116 00.9122 00.9125 00.9131 00.9141 00.9153 00.9175 00.9228 00.9303 00.9434 00.9616 00.9863 01.0172 01.0581 01.1084 01.1753 01.2606 01.3572 01.4697 01.5900 01.7191 01.8650 02.0147 02.1722 02.3328 02.4928 02.6584 02.8237 02.9872 03.1631 03.3359 03.5069 03.6762 03.8347 03.9869 04.1387 04.2719 04.3975 04.5091 04.6106 04.7200 04.8159 04.9069 04.9950 05.0797 05.1653 05.2509 05.3328 05.4212 05.5009 05.5753 05.6537 05.7256 05.7966 05.8809 05.9459 06.0128 06.0775 06.1384 06.2059 06.2581 06.3044 06.3641 06.4200 06.4731 06.5294 06.5759 06.6228 06.6781 06.7206 06.7669 06.8066 06.8453 06.8947 06.9297 06.9631 07.0028 07.0375 07.0728 07.1097 07.1412 07.1769 07.2106 07.2366 07.2687 07.2950 07.3219 07.3622 07.3841 07.4072 07.4334 07.4556 07.4819 07.5000 07.5134 07.5409 07.5628 07.5816 07.6059 07.6213 07.6381 07.6663 07.6806 07.6988 07.7153 07.7300 07.7547 07.7706 07.7837 07.8019 07.8147 07.8281 07.8450 07.8587 07.8731 07.8900 07.8988 07.9138 07.9247 07.9369 07.9603 07.9691 07.9769 07.9900 07.9987 08.0122 08.0209 08.0234 08.0350 08.0481 08.0581 08.0731 08.0806 08.0887 08.1084 08.1144 08.1228 08.1350 08.1441 08.1569 08.1669 08.1731 08.1853 08.1941 08.2034 08.2153 08.2222 08.2300 08.2450 08.2503 08.2609 08.2700 08.2788 08.2938 08.3000 08.3044 08.3172 08.3238 08.3325 08.3434 08.3456 08.3534 08.3662 08.3741 08.3859 08.3931 08.4012 08.4169 08.4231 08.4306 08.4422 08.4500 08.4594 08.4719 08.4787 08.4903 08.4987 08.5066 08.5194 08.5278 08.5366 08.5519 08.5581 08.5688 08.5800 08.5909 08.6047 08.6163 08.6228 08.6378 08.6466 08.6572 08.6719 08.6775 08.6872 08.7034 08.7147 08.7294 08.7409 08.7522 08.7678 08.7803 08.7919 08.8072 08.8203 08.8334 08.8506 08.8622 08.8772 08.8912 08.9066 08.9237 08.9394 08.9556 08.9759 08.9906 09.0075 09.0259 09.0447 09.0634 09.0847 09.1013 09.1222 09.1428 09.1622 09.1850 09.2038 09.2247 09.2497 09.2722 09.2944 09.3181 09.3400 09.3638 09.3878 09.4088 09.4322 09.4550 09.4769 09.5003 09.5197 09.5416 09.5628 09.5828 09.6047 09.6253 09.6453 09.6663 09.6847 09.7031 09.7247 09.7441 09.7656 09.7862 09.8053 09.8266 09.8478 09.8694 09.8922 09.9159 09.9400 09.9634 09.9881 10.0128 10.0381 10.0628 10.0894 10.1153 10.1397 10.1669 10.1913 10.2172 10.2409 10.2641 10.2884 10.3119 10.3341 10.3594 10.3812 10.4037 10.4269 10.4469 10.4691 10.4900 10.5100 10.5319 10.5488 10.5663 10.5881 10.6047 10.6244 10.6437 10.6603 10.6816 10.6972 10.7109 10.7309 10.7438 10.7609 10.7784 10.7891 10.8038 10.8181 10.8313 10.8462 10.8587 10.8684 10.8822 10.8906 10.9019 10.9134 10.9191 10.9297 10.9388 10.9416 10.9522 10.9581 10.9644 10.9716 10.9703 10.9719 10.9775 10.9769 10.9803 10.9822 10.9797 10.9869 10.9869 10.9809 10.9816 10.9772 10.9763 10.9769 10.9644 10.9584 10.9553 10.9475 10.9434 10.9347 10.9206 10.9172 10.9063 10.8966 10.8881 10.8731 10.8631 10.8528 10.8322 10.8222 10.8081 10.7900 10.7778 10.7547 10.7334
00.9106 00.9116 00.9116 00.9122 00.9119 00.9112 00.9112 00.9109 00.9112 00.9119 00.9119 00.9122 00.9128 00.9131 00.9144 00.9144 00.9141 00.9147 00.9153 00.9153 00.9153 00.9156 00.9172 00.9178 00.9206 00.9247 00.9306 00.9394 00.9522 00.9703 00.9947 01.0263 01.0678 01.1181 01.1856 01.2716 01.3687 01.4812 01.6006 01.7297 01.8775 02.0272 02.1841 02.3463 02.5050 02.6700 02.8356 02.9981 03.1741 03.3469 03.5172 03.6850 03.8431 03.9956 04.1459 04.2775 04.4022 04.5125 04.6153 04.7259 04.8200 04.9112 05.0006 05.0831 05.1697 05.2556 05.3362 05.4247 05.5037 05.5781 05.6562 05.7284 05.7997 05.8834 05.9484 06.0159 06.0812 06.1422 06.2081 06.2584 06.3044 06.3647 06.4194 06.4741 06.5291 06.5753 06.6222 06.6775 06.7206 06.7669 06.8069 06.8447 06.8941 06.9294 06.9631 07.0012 07.0337 07.0694 07.1059 07.1375 07.1750 07.2072 07.2337 07.2650 07.2922 07.3187 07.3603 07.3825 07.4059 07.4316 07.4534 07.4791 07.4969 07.5097 07.5366 07.5594 07.5800 07.6041 07.6194 07.6366 07.6641 07.6781 07.6953 07.7122 07.7269 07.7516 07.7659 07.7781 07.7963 07.8094 07.8225 07.8409 07.8541 07.8697 07.8869 07.8959 07.9109 07.9225 07.9350 07.9581 07.9662 07.9747 07.9891 07.9981 08.0116 08.0203 08.0222 08.0353 08.0481 08.0581 08.0734 08.0803 08.0894 08.1078 08.1128 08.1212 08.1316 08.1400 08.1538 08.1641 08.1703 08.1822 08.1900 08.1984 08.2094 08.2166 08.2259 08.2400 08.2459 08.2569 08.2666 08.2756 08.2897 08.2966 08.3019 08.3150 08.3228 08.3322 08.3419 08.3431 08.3512 08.3641 08.3725 08.3850 08.3922 08.3997 08.4147 08.4200 08.4266 08.4372 08.4434 08.4534 08.4659 08.4719 08.4837 08.4916 08.5003 08.5131 08.5216 08.5312 08.5459 08.5528 08.5628 08.5731 08.5847 08.5984 08.6097 08.6175 08.6322 08.6416 08.6537 08.6684 08.6753 08.6853 08.7000 08.7113 08.7250 08.7366 08.7488 08.7634 08.7750 08.7869 08.8025 08.8163 08.8294 08.8466 08.8584 08.8734 08.8878 08.9025 08.9187 08.9337 08.9497 08.9703 08.9866 09.0041 09.0231 09.0416 09.0612 09.0831 09.1003 09.1209 09.1416 09.1616 09.1853 09.2047 09.2253 09.2503 09.2728 09.2956 09.3200 09.3419 09.3644 09.3878 09.4100 09.4331 09.4556 09.4778 09.4997 09.5197 09.5422 09.5628 09.5831 09.6053 09.6250 09.6453 09.6672 09.6853 09.7050 09.7272 09.7469 09.7678 09.7897 09.8091 09.8294 09.8513 09.8731 09.8966 09.9200 09.9431 09.9675 09.9928 10.0172 10.0416 10.0678 10.0934 10.1184 10.1431 10.1688 10.1928 10.2184 10.2428 10.2659 10.2906 10.3128 10.3356 10.3594 10.3800 10.4028 10.4269 10.4459 10.4672 10.4891 10.5091 10.5297 10.5469 10.5644 10.5859 10.6047 10.6244 10.6434 10.6616 10.6834 10.7000 10.7147 10.7334 10.7478 10.7656 10.7834 10.7941 10.8078 10.8234 10.8356 10.8512 10.8628 10.8716 10.8856 10.8944 10.9031 10.9150 10.9206 10.9300 10.9384 10.9403 10.9491 10.9556 10.9622 10.9691 10.9684 10.9697 10.9772 10.9756 10.9791 10.9806 10.9788 10.9866 10.9872 10.9806 10.9825 10.9778 10.9772 10.9784 10.9675 10.9609 10.9600 10.9519 10.9472 10.9403 10.9256 10.9225 10.9116 10.9022 10.8947 10.8797 10.8697 10.8591 10.8381 10.8278 10.8134 10.7962 10.7837 10.7606 10.7381
00.9019 00.9025 00.9031 00.9034 00.9041 00.9053 00.9044 00.9053 00.9062 00.9069 00.9059 00.9056 00.9050 00.9053 00.9059 00.9050 00.9044 00.9056 00.9056 00.9056 00.9053 00.9059 00.9066 00.9075 00.9097 00.9122 00.9187 00.9272 00.9400 00.9578 00.9816 01.0125 01.0544 01.1031 01.1681 01.2528 01.3497 01.4606 01.5809 01.7084 01.8550 02.0044 02.1603 02.3206 02.4800 02.6456 02.8113 02.9737 03.1484 03.3222 03.4925 03.6619 03.8203 03.9712 04.1247 04.2594 04.3847 04.4978 04.6006 04.7100 04.8066 04.8969 04.9872 05.0716 05.1562 05.2416 05.3231 05.4097 05.4922 05.5659 05.6444 05.7156 05.7856 05.8725 05.9375 06.0034 06.0700 06.1312 06.1962 06.2491 06.2953 06.3544 06.4106 06.4638 06.5216 06.5691 06.6159 06.6725 06.7153 06.7613 06.8038 06.8431 06.8919 06.9281 06.9625 07.0019 07.0341 07.0675 07.1047 07.1375 07.1709 07.2062 07.2322 07.2644 07.2903 07.3172 07.3569 07.3803 07.4022 07.4288 07.4500 07.4747 07.4944 07.5069 07.5306 07.5538 07.5747 07.5991 07.6156 07.6322 07.6603 07.6750 07.6909 07.7084 07.7241 07.7466 07.7641 07.7766 07.7944 07.8075 07.8203 07.8381 07.8522 07.8650 07.8847 07.8941 07.9075 07.9200 07.9316 07.9541 07.9653 07.9722 07.9872 07.9959 08.0081 08.0194 08.0203 08.0300 08.0444 08.0550 08.0697 08.0784 08.0862 08.1050 08.1113 08.1184 08.1297 08.1378 08.1500 08.1622 08.1675 08.1794 08.1884 08.1981 08.2088 08.2147 08.2228 08.2378 08.2434 08.2525 08.2628 08.2706 08.2844 08.2938 08.2975 08.3109 08.3203 08.3288 08.3409 08.3419 08.3484 08.3622 08.3703 08.3800 08.3887 08.3972 08.4116 08.4209 08.4278 08.4397 08.4469 08.4556 08.4691 08.4759 08.4869 08.4962 08.5037 08.5166 08.5250 08.5334 08.5481 08.5556 08.5647 08.5772 08.5869 08.5994 08.6122 08.6184 08.6322 08.6409 08.6509 08.6675 08.6738 08.6822 08.6984 08.7094 08.7225 08.7347 08.7463 08.7613 08.7759 08.7869 08.8022 08.8153 08.8291 08.8466 08.8587 08.8725 08.8872 08.9028 08.9200 08.9347 08.9516 08.9709 08.9869 09.0038 09.0234 09.0425 09.0609 09.0834 09.1000 09.1197 09.1406 09.1603 09.1844 09.2037 09.2237 09.2484 09.2709 09.2941 09.3181 09.3400 09.3625 09.3872 09.4091 09.4319 09.4544 09.4763 09.4987 09.5184 09.5397 09.5609 09.5816 09.6038 09.6234 09.6438 09.6650 09.6853 09.7062 09.7269 09.7472 09.7681 09.7891 09.8087 09.8291 09.8513 09.8738 09.8972 09.9222 09.9459 09.9709 09.9966 10.0225 10.0481 10.0750 10.1019 10.1278 10.1509 10.1753 10.2003 10.2259 10.2509 10.2741 10.2981 10.3213 10.3441 10.3675 10.3891 10.4109 10.4347 10.4544 10.4756 10.4969 10.5162 10.5372 10.5544 10.5716 10.5931 10.6109 10.6309 10.6503 10.6675 10.6894 10.7084 10.7213 10.7397 10.7544 10.7709 10.7891 10.8013 10.8144 10.8297 10.8416 10.8566 10.8694 10.8778 10.8922 10.9022 10.9128 10.9231 10.9303 10.9413 10.9519 10.9541 10.9644 10.9713 10.9772 10.9856 10.9863 10.9859 10.9938 10.9938 10.9969 11.0003 10.9969 11.0034 11.0063 10.9994 10.9988 10.9969 10.9944 10.9938 10.9844 10.9744 10.9731 10.9656 10.9609 10.9544 10.9391 10.9344 10.9247 10.9131 10.9044 10.8897 10.8781 10.8687 10.8491 10.8378 10.8259 10.8072 10.7947 10.7756 10.7494
00.9100 00.9100 00.9106 00.9106 00.9116 00.9119 00.9122 00.9122 00.9119 00.9119 00.9116 00.9112 00.9119 00.9119 00.9116 00.9109 00.9106 00.9097 00.9097 00.9097 00.9091 00.9091 00.9094 00.9103 00.9112 00.9134 00.9181 00.9256 00.9366 00.9528 00.9747 01.0025 01.0406 01.0872 01.1463 01.2266 01.3188 01.4275 01.5447 01.6669 01.8113 01.9606 02.1144 02.2750 02.4353 02.5978 02.7650 02.9294 03.1016 03.2769 03.4466 03.6187 03.7812 03.9325 04.0894 04.2281 04.3556 04.4716 04.5766 04.6859 04.7850 04.8759 04.9675 05.0519 05.1350 05.2244 05.3050 05.3872 05.4737 05.5488 05.6269 05.6997 05.7697 05.8531 05.9222 05.9866 06.0544 06.1159 06.1806 06.2403 06.2869 06.3413 06.3988 06.4512 06.5097 06.5575 06.6037 06.6613 06.7047 06.7472 06.7922 06.8306 06.8750 06.9181 06.9512 06.9906 07.0253 07.0584 07.0956 07.1272 07.1584 07.1978 07.2244 07.2553 07.2831 07.3097 07.3466 07.3737 07.3941 07.4225 07.4431 07.4659 07.4894 07.5016 07.5216 07.5478 07.5666 07.5900 07.6081 07.6250 07.6522 07.6691 07.6844 07.7031 07.7175 07.7347 07.7572 07.7691 07.7866 07.8006 07.8150 07.8331 07.8478 07.8606 07.8822 07.8909 07.9041 07.9187 07.9300 07.9491 07.9641 07.9700 07.9841 07.9931 08.0034 08.0194 08.0200 08.0266 08.0431 08.0537 08.0659 08.0762 08.0841 08.0997 08.1097 08.1159 08.1275 08.1350 08.1450 08.1597 08.1647 08.1747 08.1837 08.1928 08.2056 08.2122 08.2197 08.2359 08.2419 08.2487 08.2609 08.2688 08.2797 08.2916 08.2947 08.3063 08.3153 08.3228 08.3353 08.3372 08.3422 08.3556 08.3650 08.3750 08.3834 08.3912 08.4019 08.4137 08.4200 08.4325 08.4384 08.4469 08.4619 08.4681 08.4769 08.4872 08.4953 08.5069 08.5172 08.5256 08.5403 08.5494 08.5575 08.5694 08.5800 08.5919 08.6081 08.6131 08.6244 08.6350 08.6459 08.6606 08.6681 08.6772 08.6928 08.7038 08.7163 08.7303 08.7416 08.7550 08.7709 08.7809 08.7963 08.8109 08.8241 08.8416 08.8550 08.8687 08.8853 08.8997 08.9162 08.9328 08.9487 08.9666 08.9847 09.0019 09.0209 09.0388 09.0575 09.0800 09.0966 09.1169 09.1381 09.1578 09.1806 09.2006 09.2194 09.2434 09.2662 09.2888 09.3125 09.3344 09.3575 09.3828 09.4044 09.4275 09.4503 09.4731 09.4950 09.5159 09.5372 09.5588 09.5784 09.6003 09.6213 09.6416 09.6631 09.6828 09.7025 09.7241 09.7441 09.7653 09.7862 09.8066 09.8266 09.8497 09.8731 09.8966 09.9212 09.9444 09.9688 09.9938 10.0203 10.0453 10.0722 10.0987 10.1241 10.1497 10.1753 10.2000 10.2259 10.2513 10.2741 10.2984 10.3231 10.3447 10.3681 10.3909 10.4134 10.4381 10.4584 10.4784 10.4994 10.5191 10.5391 10.5578 10.5756 10.5969 10.6147 10.6347 10.6547 10.6712 10.6937 10.7131 10.7250 10.7431 10.7588 10.7741 10.7919 10.8053 10.8175 10.8347 10.8478 10.8628 10.8772 10.8850 10.8987 10.9091 10.9191 10.9309 10.9388 10.9484 10.9581 10.9609 10.9697 10.9778 10.9831 10.9913 10.9947 10.9909 10.9988 10.9984 11.0000 11.0038 11.0009 11.0066 11.0100 11.0028 11.0019 10.9997 10.9963 10.9972 10.9906 10.9794 10.9788 10.9713 10.9656 10.9609 10.9447 10.9409 10.9328 10.9213 10.9144 10.9013 10.8884 10.8797 10.8613 10.8484 10.8375 10.8178 10.8044 10.7872 10.7581
00.9103 00.9116 00.9109 00.9116 00.9122 00.9116 00.9112 00.9122 00.9119 00.9125 00.9128 00.9128 00.9134 00.9147 00.9147 00.9141 00.9141 00.9150 00.9144 00.9141 00.9144 00.9141 00.9153 00.9162 00.9181 00.9216 00.9284 00.9375 00.9503 00.9684 00.9922 01.0234 01.0638 01.1131 01.1800 01.2653 01.3625 01.4750 01.5950 01.7234 01.8697 02.0197 02.1769 02.3378 02.4984 02.6656 02.8309 02.9928 03.1694 03.3422 03.5137 03.6828 03.8416 03.9947 04.1456 04.2787 04.4041 04.5144 04.6175 04.7281 04.8241 04.9150 05.0041 05.0878 05.1731 05.2575 05.3387 05.4272 05.5069 05.5819 05.6591 05.7300 05.8016 05.8859 05.9516 06.0181 06.0831 06.1456 06.2119 06.2628 06.3081 06.3684 06.4238 06.4778 06.5338 06.5803 06.6278 06.6841 06.7263 06.7716 06.8131 06.8519 06.9009 06.9347 06.9678 07.0066 07.0391 07.0734 07.1097 07.1412 07.1784 07.2112 07.2378 07.2691 07.2950 07.3216 07.3619 07.3812 07.4038 07.4294 07.4494 07.4750 07.4928 07.5063 07.5334 07.5553 07.5753 07.5988 07.6141 07.6316 07.6591 07.6734 07.6906 07.7075 07.7222 07.7478 07.7628 07.7766 07.7950 07.8081 07.8225 07.8403 07.8534 07.8691 07.8859 07.8953 07.9100 07.9222 07.9341 07.9569 07.9647 07.9725 07.9862 07.9950 08.0087 08.0156 08.0172 08.0300 08.0434 08.0534 08.0678 08.0753 08.0837 08.1019 08.1078 08.1166 08.1278 08.1359 08.1500 08.1591 08.1644 08.1769 08.1850 08.1944 08.2053 08.2128 08.2219 08.2363 08.2416 08.2528 08.2619 08.2703 08.2859 08.2928 08.2969 08.3094 08.3159 08.3256 08.3359 08.3387 08.3475 08.3588 08.3662 08.3788 08.3869 08.3947 08.4100 08.4159 08.4241 08.4350 08.4428 08.4531 08.4644 08.4709 08.4844 08.4925 08.5016 08.5137 08.5213 08.5294 08.5453 08.5531 08.5641 08.5744 08.5853 08.5997 08.6109 08.6187 08.6328 08.6419 08.6534 08.6678 08.6747 08.6856 08.7006 08.7119 08.7263 08.7381 08.7513 08.7678 08.7797 08.7916 08.8078 08.8209 08.8337 08.8509 08.8628 08.8778 08.8919 08.9072 08.9244 08.9400 08.9569 08.9769 08.9919 09.0100 09.0297 09.0487 09.0681 09.0903 09.1075 09.1284 09.1481 09.1694 09.1941 09.2125 09.2337 09.2578 09.2803 09.3028 09.3263 09.3481 09.3716 09.3953 09.4181 09.4416 09.4631 09.4850 09.5072 09.5263 09.5478 09.5681 09.5891 09.6103 09.6294 09.6500 09.6716 09.6909 09.7112 09.7328 09.7528 09.7744 09.7956 09.8153 09.8356 09.8578 09.8806 09.9037 09.9278 09.9512 09.9759 10.0013 10.0263 10.0522 10.0797 10.1059 10.1306 10.1553 10.1813 10.2063 10.2325 10.2569 10.2797 10.3038 10.3266 10.3491 10.3737 10.3969 10.4203 10.4444 10.4631 10.4847 10.5066 10.5262 10.5469 10.5644 10.5844 10.6059 10.6237 10.6441 10.6628 10.6809 10.7028 10.7194 10.7331 10.7522 10.7656 10.7819 10.7991 10.8106 10.8263 10.8419 10.8550 10.8700 10.8809 10.8900 10.9031 10.9116 10.9222 10.9338 10.9397 10.9500 10.9591 10.9622 10.9725 10.9778 10.9850 10.9931 10.9919 10.9934 10.9994 10.9981 11.0009 11.0034 11.0019 11.0103 11.0097 11.0047 11.0050 11.0003 11.0000 11.0000 10.9866 10.9806 10.9784 10.9703 10.9663 10.9566 10.9428 10.9388 10.9275 10.9178 10.9097 10.8931 10.8831 10.8722 10.8506 10.8400 10.8259 10.8078 10.7950 10.7700 10.7491
